3.043364 -4.483259 0.000000
-1.461737 -2.079126 0.000000
2.269906 1.366267 0.000000
0.527688 3.893828 0.000000
2.672762 1.784208 0.000000
-3.269007 0.041125 0.000000
-2.360706 3.781736 0.000000
1.685485 -0.114480 0.000000
-2.000871 -1.952000 0.000000
-3.190721 2.550080 0.000000
-3.184253 1.139764 0.000000
-0.343014 2.679127 0.000000
-0.413039 -3.831249 0.000000
-1.247017 2.314182 0.000000
-1.155980 -1.453175 0.000000
-3.796555 -3.471093 0.000000
3.086077 -1.783315 0.000000
0.057503 -1.329260 0.000000
-2.309504 4.780849 0.000000
-0.549435 -2.596977 0.000000
-4.314766 -0.589738 0.000000
-0.718691 3.958601 0.000000
4.327750 -2.847083 0.000000
3.214075 -3.300007 0.000000
-3.230023 -4.511058 0.000000
0.901743 -1.418496 0.000000
-3.976151 -4.632308 0.000000
-2.251399 -4.302025 0.000000
1.929423 -1.613379 0.000000
-4.142619 -4.724781 0.000000
-0.881635 -3.786022 0.000000
0.599013 0.528157 0.000000
-3.655278 -4.878561 0.000000
1.783964 -1.268409 0.000000
-1.921856 1.313853 0.000000
3.183470 3.904418 0.000000
2.503258 3.220950 0.000000
3.528456 3.381880 0.000000
-4.113699 0.306287 0.000000
-1.179958 -1.760751 0.000000
1.760029 0.033117 0.000000
-0.443522 -1.044836 0.000000
4.675910 -0.057023 0.000000
1.800726 -3.077442 0.000000
-3.319970 2.582374 0.000000
-1.172717 2.783905 0.000000
1.368083 -0.309505 0.000000
2.658050 -4.850241 0.000000
0.888298 3.288692 0.000000
-1.845802 -4.179660 0.000000
-1.110120 -2.331117 0.000000
1.633627 1.391229 0.000000
-1.820305 0.345471 0.000000
2.093262 3.221344 0.000000
2.213134 -3.233947 0.000000
2.331338 -4.060279 0.000000
-2.097882 -2.320432 0.000000
-0.661417 2.168434 0.000000
-2.379674 -1.919821 0.000000
4.450875 -3.852717 0.000000
0.172542 4.127456 0.000000
-4.798476 -1.475345 0.000000
2.869239 -0.734569 0.000000
-1.404651 2.679876 0.000000
-1.941657 -3.040664 0.000000
-2.236864 -3.708047 0.000000
2.179269 -0.638802 0.000000
-1.559877 3.565272 0.000000
1.296368 -0.597223 0.000000
4.192788 4.247244 0.000000
3.624140 0.308844 0.000000
2.967996 2.154429 0.000000
3.827155 4.910538 0.000000
-2.866663 -4.113582 0.000000
-2.352254 2.372880 0.000000
0.956418 -3.937232 0.000000
-4.986182 -1.287003 0.000000
-0.663631 -4.185827 0.000000
0.682623 3.022318 0.000000
2.330578 0.342741 0.000000
3.581537 -2.685174 0.000000
2.709662 3.106867 0.000000
-2.461607 -4.811708 0.000000
4.445850 -0.390307 0.000000
0.301273 -0.067689 0.000000
-1.050154 -4.406514 0.000000
0.610609 -4.502863 0.000000
0.351860 0.947666 0.000000
4.027670 -1.128495 0.000000
0.576132 -1.224743 0.000000
-1.216881 -1.657576 0.000000
-2.048107 -0.084229 0.000000
4.432578 1.981099 0.000000
-1.804164 -3.767554 0.000000
4.171464 -0.754357 0.000000
0.591666 -1.322644 0.000000
-3.126528 -0.997554 0.000000
2.289843 0.396002 0.000000
0.744762 -0.733759 0.000000
-0.067698 -4.162766 0.000000
3.140839 -4.152877 0.000000
1.254401 1.971772 0.000000
-0.359620 -4.725013 0.000000
0.169212 -3.122545 0.000000
-1.090254 1.189311 0.000000
-4.204937 4.079851 0.000000
-1.454282 1.235815 0.000000
-1.532384 3.705732 0.000000
-3.312667 -2.026099 0.000000
3.331736 4.681329 0.000000
3.694480 -0.556872 0.000000
0.827387 -1.143557 0.000000
-2.926484 3.621720 0.000000
3.465866 -4.361795 0.000000
0.231119 2.793169 0.000000
1.263002 3.053001 0.000000
1.203587 -4.640673 0.000000
0.956774 -2.574871 0.000000
0.976886 -4.945554 0.000000
-2.835040 -2.048907 0.000000
-2.179072 2.304797 0.000000
3.881902 4.218007 0.000000
4.443039 3.876669 0.000000
2.650961 -4.652778 0.000000
-1.191369 -4.231816 0.000000
3.648322 -4.080098 0.000000
2.561549 2.995434 0.000000
1.846665 1.625440 0.000000
-1.879184 -0.068119 0.000000
1.151165 2.596947 0.000000
-3.634058 -4.462390 0.000000
-2.097595 2.360893 0.000000
-4.022586 -0.839229 0.000000
2.396205 -1.573867 0.000000
1.981927 2.990854 0.000000
-1.745271 -2.736661 0.000000
0.951592 4.718679 0.000000
1.519455 2.169417 0.000000
2.831964 -4.706987 0.000000
-0.590478 1.871358 0.000000
4.469362 -2.208235 0.000000
-0.772268 4.043614 0.000000
-2.665379 -1.890573 0.000000
-2.148300 2.519452 0.000000
-2.379725 0.593917 0.000000
3.110515 1.019579 0.000000
2.357257 0.579923 0.000000
2.501600 -1.660528 0.000000
-3.626454 -4.384404 0.000000
1.818993 4.951196 0.000000
2.853407 3.378745 0.000000
-1.945797 3.283610 0.000000
-2.608472 2.590573 0.000000
-4.824232 -1.174347 0.000000
-3.763891 -4.800383 0.000000
3.273735 -1.602301 0.000000
2.426584 -1.063039 0.000000
-3.289184 -1.695531 0.000000
3.571368 0.014985 0.000000
3.135536 -0.514123 0.000000
-0.115956 1.987530 0.000000
-0.271127 -1.308266 0.000000
-4.365706 2.285728 0.000000
-0.888535 -1.468496 0.000000
2.130007 -0.116676 0.000000
4.118641 -0.721724 0.000000
-2.578394 -3.119622 0.000000
-3.098299 -4.064097 0.000000
-4.874637 4.792649 0.000000
3.225099 2.952124 0.000000
1.207136 2.671550 0.000000
2.241112 0.573707 0.000000
4.769852 1.864769 0.000000
4.432509 -1.172385 0.000000
2.828420 1.804303 0.000000
-0.258117 -2.323204 0.000000
-2.458324 -3.578823 0.000000
-4.642535 -1.586138 0.000000
0.638712 -1.316049 0.000000
4.377728 2.189817 0.000000
-2.855019 -2.251029 0.000000
0.664497 -0.094593 0.000000
2.055631 1.829922 0.000000
2.272754 -4.821203 0.000000
-4.885509 -4.967170 0.000000
-1.735706 1.954610 0.000000
-3.198271 2.673793 0.000000
-1.613206 -0.705988 0.000000
-2.777329 3.195256 0.000000
0.524485 -4.193096 0.000000
4.696986 3.161109 0.000000
1.656012 -4.024271 0.000000
3.743499 -2.237717 0.000000
4.665742 -1.426930 0.000000
2.376385 -2.370303 0.000000
-3.696534 0.579811 0.000000
3.577484 3.785608 0.000000
-1.722530 -2.002426 0.000000
2.310634 3.133292 0.000000
0.959116 -3.753485 0.000000
-0.174746 -0.283513 0.000000
0.151276 -2.930345 0.000000
3.302833 4.608250 0.000000
4.758818 1.225660 0.000000
-4.543090 -0.841476 0.000000
-4.006391 -3.185914 0.000000
3.949540 -1.181110 0.000000
1.497939 4.283624 0.000000
4.105075 -2.499856 0.000000
4.488984 -1.989391 0.000000
-0.375870 2.419457 0.000000
-0.828059 -1.296699 0.000000
4.119104 2.532440 0.000000
-1.710212 4.558099 0.000000
3.017888 -0.741554 0.000000
-4.460077 -1.474773 0.000000
-0.079295 -0.852690 0.000000
3.681931 -4.672348 0.000000
-2.538656 -1.723687 0.000000
-1.302860 -0.595074 0.000000
-2.796656 -3.143980 0.000000
-2.922117 0.095733 0.000000
-1.278209 -4.353521 0.000000
-3.617215 -0.644755 0.000000
-4.027977 -0.215696 0.000000
4.295395 3.190241 0.000000
-2.240217 4.469213 0.000000
-4.000208 -1.306931 0.000000
-0.974451 -1.402236 0.000000
-2.110015 -2.835065 0.000000
0.182577 -4.965087 0.000000
-4.898805 -0.048563 0.000000
-4.168157 -1.197570 0.000000
1.653812 1.561607 0.000000
3.730488 4.413138 0.000000
0.279951 -1.067581 0.000000
2.494712 -1.594162 0.000000
4.047568 2.866766 0.000000
-3.708950 -4.202439 0.000000
4.496116 1.466935 0.000000
1.606992 2.128119 0.000000
1.703527 0.120253 0.000000
-4.205561 -3.469424 0.000000
-2.096492 0.203406 0.000000
-0.367887 0.872742 0.000000
4.020916 -3.036534 0.000000
-1.183753 3.787380 0.000000
-0.874337 3.989662 0.000000
-3.510126 -0.958076 0.000000
3.368178 -4.956838 0.000000
-2.076665 -0.322283 0.000000
-4.385123 0.000346 0.000000
-3.763266 1.120936 0.000000
-0.922025 -0.656785 0.000000
0.448792 -3.900756 0.000000
-3.915795 0.783061 0.000000
-3.745737 -3.958259 0.000000
0.950179 -4.610574 0.000000
-2.994185 0.431763 0.000000
1.240027 -1.102132 0.000000
-1.501034 1.339018 0.000000
-2.397920 -4.434525 0.000000
0.647593 -3.969852 0.000000
4.565729 -4.903154 0.000000
0.936240 -0.597163 0.000000
-0.980200 -3.939307 0.000000
2.983304 -2.344167 0.000000
13.672506 0.000000 4.203311
13.467098 0.000000 -2.906559
14.594733 0.000000 1.180526
13.934467 0.000000 4.958774
13.017719 0.000000 -2.953826
13.141528 0.000000 -3.341063
11.525822 0.000000 -2.969554
16.288867 0.000000 3.606086
19.385755 0.000000 1.465030
12.583865 0.000000 4.650082
15.224509 0.000000 -1.230456
15.286434 0.000000 -1.433267
15.273965 0.000000 0.726382
14.555569 0.000000 -4.982633
11.573440 0.000000 1.003186
17.630632 0.000000 3.764781
15.031304 0.000000 2.856475
18.916553 0.000000 1.002879
14.742512 0.000000 4.776510
18.192632 0.000000 -4.027609
15.200947 0.000000 -3.661219
17.538804 0.000000 3.624088
17.269205 0.000000 -0.761402
11.668696 0.000000 -3.513062
18.836581 0.000000 1.424398
18.986163 0.000000 -0.310220
14.980288 0.000000 2.974436
10.981978 0.000000 2.840542
11.349435 0.000000 -3.661061
19.125753 0.000000 -3.848807
11.775561 0.000000 1.685432
11.296201 0.000000 -4.541867
12.896391 0.000000 0.748129
14.880324 0.000000 -0.724068
14.380666 0.000000 -3.385317
14.030524 0.000000 -4.277245
16.591650 0.000000 0.704738
17.352941 0.000000 2.259627
17.867865 0.000000 1.040928
11.556283 0.000000 -0.524421
18.489139 0.000000 0.798119
14.893066 0.000000 -1.671217
18.763906 0.000000 -1.027494
12.896325 0.000000 4.422015
11.964594 0.000000 -2.354530
10.489333 0.000000 -4.517692
10.714297 0.000000 -3.217639
18.126967 0.000000 4.265155
11.922331 0.000000 4.482093
16.046964 0.000000 -1.810534
18.934031 0.000000 2.576899
19.916656 0.000000 2.375950
18.726354 0.000000 -3.500316
11.035374 0.000000 -3.725243
17.442250 0.000000 0.323334
12.068634 0.000000 1.496453
15.132379 0.000000 -4.770707
15.904511 0.000000 -2.650996
12.113108 0.000000 -0.955512
10.559203 0.000000 4.508526
15.646421 0.000000 3.191478
15.790123 0.000000 1.877057
15.029533 0.000000 4.863145
13.541946 0.000000 0.578337
10.782747 0.000000 -2.404825
12.106163 0.000000 4.568718
15.332714 0.000000 2.276130
19.312232 0.000000 4.894709
19.124581 0.000000 -0.388173
16.644604 0.000000 -3.163123
15.651014 0.000000 2.034841
10.094244 0.000000 2.035799
19.753638 0.000000 -3.579999
12.219694 0.000000 -2.686759
10.508954 0.000000 -4.440732
15.517414 0.000000 -2.671573
19.150547 0.000000 0.269849
19.645457 0.000000 -2.107562
13.626510 0.000000 -0.866418
18.550902 0.000000 -2.393666
13.460022 0.000000 1.056859
11.723201 0.000000 -1.296402
17.723708 0.000000 -3.154883
14.651980 0.000000 2.951406
18.252389 0.000000 -1.138847
14.281233 0.000000 4.107389
19.630697 0.000000 -2.543917
16.088404 0.000000 1.614886
17.297798 0.000000 4.164537
14.470633 0.000000 -0.048145
19.627435 0.000000 3.269551
13.509025 0.000000 4.080294
17.282112 0.000000 3.592283
16.222705 0.000000 -4.196305
16.807247 0.000000 3.635724
17.089142 0.000000 3.343147
17.120218 0.000000 3.081600
15.327865 0.000000 4.888530
16.914396 0.000000 -4.284384
19.435265 0.000000 -4.782697
15.341424 0.000000 0.409130
11.273334 0.000000 1.437262
12.027245 0.000000 1.998409
15.933671 0.000000 2.891034
18.006682 0.000000 1.887920
12.861195 0.000000 1.231932
19.979318 0.000000 1.798155
16.318714 0.000000 0.094478
18.372112 0.000000 -3.986784
15.132251 0.000000 -1.985867
12.516255 0.000000 -4.290965
15.437194 0.000000 -0.955623
10.803660 0.000000 -2.184465
19.240517 0.000000 2.095445
14.457223 0.000000 2.908101
17.275392 0.000000 -0.177310
18.145704 0.000000 -4.574531
14.623864 0.000000 1.156431
16.304805 0.000000 2.955794
10.873577 0.000000 2.148339
15.403220 0.000000 -0.021793
17.808877 0.000000 2.296895
11.593573 0.000000 1.053765
15.823782 0.000000 -4.214831
10.930802 0.000000 -3.192305
12.381760 0.000000 0.833887
10.533351 0.000000 1.543585
15.188596 0.000000 -2.235763
11.323111 0.000000 4.583288
16.472177 0.000000 -0.407817
17.398333 0.000000 -3.225053
15.459793 0.000000 0.704117
13.966145 0.000000 -1.867412
14.408801 0.000000 2.946990
14.949583 0.000000 -4.497256
11.532586 0.000000 0.399262
19.620281 0.000000 0.747431
14.280967 0.000000 -3.129622
11.341848 0.000000 -4.676408
18.571455 0.000000 -2.411913
19.056498 0.000000 2.223045
13.459956 0.000000 1.300374
10.440451 0.000000 -3.598912
13.182097 0.000000 1.785090
15.449040 0.000000 -2.853820
16.639649 0.000000 -3.696262
15.742958 0.000000 -0.977357
14.097728 0.000000 -4.419756
11.963943 0.000000 0.817759
12.969031 0.000000 1.824901
19.090245 0.000000 1.787106
15.063478 0.000000 0.797845
13.784253 0.000000 -1.536119
18.974736 0.000000 4.875475
18.983245 0.000000 -3.256257
16.943855 0.000000 -3.864383
12.113778 0.000000 -4.890153
13.830343 0.000000 -1.800037
12.082220 0.000000 4.981511
19.237763 0.000000 4.519188
13.314684 0.000000 -0.783834
19.975164 0.000000 3.276440
17.271288 0.000000 -2.974995
12.482583 0.000000 1.839027
12.282641 0.000000 -2.836463
19.236810 0.000000 -0.058223
16.084386 0.000000 3.822114
13.031856 0.000000 -3.886397
19.724764 0.000000 2.666856
10.404051 0.000000 -2.379984
14.440977 0.000000 -0.328166
13.685362 0.000000 -4.519789
15.937656 0.000000 -0.764174
19.824320 0.000000 -1.694784
11.903629 0.000000 -1.990536
19.908127 0.000000 -1.480512
14.793569 0.000000 1.569955
18.821248 0.000000 -0.465026
13.977972 0.000000 2.546344
17.476442 0.000000 3.167019
19.230650 0.000000 2.710574
11.406684 0.000000 -2.091616
15.827953 0.000000 -2.717971
17.236745 0.000000 3.095290
10.668068 0.000000 -4.865154
17.576315 0.000000 1.715426
17.928710 0.000000 -0.743221
13.601591 0.000000 -1.937170
14.243905 0.000000 -3.132158
11.521734 0.000000 3.158062
19.670974 0.000000 0.461234
11.071323 0.000000 -3.744167
16.908980 0.000000 3.555359
14.295894 0.000000 1.705859
17.741708 0.000000 3.249442
15.824518 0.000000 -1.314505
14.602072 0.000000 1.611663
18.322214 0.000000 -4.927955
10.863442 0.000000 3.315941
18.930839 0.000000 -4.814542
12.516124 0.000000 -0.295223
10.548822 0.000000 0.016952
12.129262 0.000000 3.391091
15.917932 0.000000 2.234044
12.036357 0.000000 -2.099550
15.607431 0.000000 -2.530105
15.729919 0.000000 1.018388
17.947429 0.000000 2.541459
15.252682 0.000000 -3.277929
17.634036 0.000000 0.013162
14.780489 0.000000 -3.690436
13.132444 0.000000 0.762105
11.721087 0.000000 2.223674
11.101149 0.000000 -1.475746
18.156662 0.000000 -4.331897
10.896859 0.000000 -3.420521
16.202346 0.000000 2.181950
11.151151 0.000000 4.387406
16.710522 0.000000 -4.606821
17.459505 0.000000 1.055117
13.983748 0.000000 4.003776
16.220539 0.000000 -3.620894
15.608249 0.000000 -4.853113
11.739378 0.000000 1.195274
17.960658 0.000000 -1.039095
19.500536 0.000000 -0.977101
13.942318 0.000000 -0.506826
14.314744 0.000000 0.030434
16.282955 0.000000 -2.507763
10.867843 0.000000 -4.067516
19.248463 0.000000 4.207196
17.804272 0.000000 4.071035
14.293337 0.000000 -2.388396
17.521979 0.000000 -4.409222
15.522924 0.000000 -3.817780
13.914120 0.000000 -1.852314
16.065219 0.000000 3.440594
11.618549 0.000000 -0.082462
12.114278 0.000000 -4.964527
17.194276 0.000000 4.899475
10.371830 0.000000 2.579278
17.226769 0.000000 -2.125391
10.858955 0.000000 1.009050
16.343879 0.000000 -4.093021
19.025732 0.000000 -2.269674
10.282091 0.000000 -0.477883
13.878397 0.000000 -2.506987
13.591647 0.000000 -1.000312
19.118790 0.000000 -0.027115
14.616660 0.000000 -4.604081
14.807124 0.000000 0.804229
16.370074 0.000000 -2.738883
14.857569 0.000000 2.135251
10.095393 0.000000 0.432663
13.643067 0.000000 2.765057
11.888503 0.000000 -1.381805
10.307789 0.000000 -3.459017
11.771603 0.000000 -3.835283
15.474224 0.000000 -1.849599
10.003958 0.000000 3.458319
15.990908 0.000000 3.109785
19.722371 0.000000 -1.288520
17.779410 0.000000 -3.437021
19.319658 0.000000 -3.765595
12.260638 0.000000 1.179684
18.527803 0.000000 0.132349
15.254640 0.000000 -2.127340
15.708289 0.000000 2.374075
13.097894 0.000000 -2.576216
12.870523 0.000000 2.330537
16.089486 0.000000 2.038544
10.968592 0.000000 -2.803707
16.489280 0.000000 -0.156927
15.162867 0.000000 -4.329521
13.082732 0.000000 3.564422
16.915208 0.000000 0.129788
14.618289 0.000000 0.103252
14.120760 0.000000 -0.457482
16.261048 0.000000 3.527805
12.873145 0.000000 -0.192003
16.556303 0.000000 -0.519504
11.178269 0.000000 -3.563986
18.775952 0.000000 2.758101
18.472116 0.000000 -0.808745
11.643336 0.000000 -1.830975
19.236011 0.000000 -4.603051
10.737897 0.000000 0.853644
17.486655 0.000000 -1.634296
10.838971 0.000000 -1.722400
15.487233 0.000000 -4.415692
14.454237 0.000000 -2.509475
11.899571 0.000000 -2.594397
10.505351 0.000000 2.029505
10.691950 0.000000 -1.445692
19.167550 0.000000 -1.015850
13.454178 0.000000 3.219014
15.079857 0.000000 2.398663
14.868217 0.000000 1.839962
15.529574 0.000000 -4.212877
19.433115 0.000000 -3.828673
16.228885 0.000000 1.346570
17.621840 0.000000 4.611379
19.792199 0.000000 -2.621267
10.939038 0.000000 -0.035809
15.140426 0.000000 4.385044
19.480268 0.000000 -2.539206
11.423272 0.000000 0.727512
15.049639 0.000000 4.369971
19.989539 0.000000 0.082535
15.265243 0.000000 -1.734689
14.623793 0.000000 4.172730
16.763183 0.000000 2.251915
15.055565 0.000000 -0.807322
14.619947 0.000000 0.776378
13.902773 0.000000 4.669184
19.132477 0.000000 0.474583
16.415873 0.000000 -3.626269
13.636665 0.000000 1.634079
15.679526 0.000000 3.190950
18.077153 0.000000 -0.556075
16.453322 0.000000 3.314217
14.396575 0.000000 2.042860
10.409317 0.000000 -3.327050
16.988527 0.000000 -4.603924
18.688735 0.000000 1.116848
18.101270 0.000000 3.923471
11.808055 0.000000 1.159045
16.007014 0.000000 4.407707
16.073927 0.000000 -1.941624
19.361591 0.000000 1.850046
17.806979 0.000000 -3.976023
19.347344 0.000000 -3.354486
17.383439 0.000000 2.326597
16.361120 0.000000 -2.512556
19.747806 0.000000 -2.739523
17.390724 0.000000 3.124855
14.818603 0.000000 -3.879745
11.364092 0.000000 1.915502
15.607989 0.000000 -1.219153
14.750738 0.000000 -4.326020
17.504276 0.000000 0.713226
15.604422 0.000000 -0.741017
18.005243 0.000000 4.255276
15.554164 0.000000 1.738664
12.726316 0.000000 -4.829415
19.376169 0.000000 -4.818413
11.362931 0.000000 -3.050723
19.760209 0.000000 1.015749
14.044085 0.000000 3.742714
18.452645 0.000000 1.893447
14.030870 0.000000 3.758273
17.185888 0.000000 2.263366
16.349602 0.000000 2.814703
13.289402 0.000000 -3.836246
18.002794 0.000000 1.579082
16.660094 0.000000 -1.440195
10.286222 0.000000 -0.356753
16.414292 0.000000 -2.087557
17.470013 0.000000 1.221403
18.237203 0.000000 -4.354443
14.750695 0.000000 -0.317100
10.355519 0.000000 1.468991
10.427411 0.000000 3.199000
12.921598 0.000000 -0.124585
19.634177 0.000000 4.989295
18.401765 0.000000 -2.365376
17.236793 0.000000 -2.189697
10.237417 0.000000 1.610034
10.151537 0.000000 -1.656259
17.836791 0.000000 2.564306
15.173617 0.000000 -4.853967
18.112633 0.000000 -0.385968
18.306256 0.000000 2.611938
18.681626 0.000000 -2.832008
11.369200 0.000000 0.612297
19.535948 0.000000 -3.760284
17.390693 0.000000 -3.996070
15.151041 0.000000 2.741239
10.858267 0.000000 0.750672
12.132788 0.000000 4.040477
14.749098 0.000000 1.798266
19.116920 0.000000 3.705869
11.160213 0.000000 0.541191
16.220771 0.000000 -0.946511
18.616617 0.000000 -1.695428
16.019061 0.000000 -3.006935
14.779441 0.000000 3.135493
18.740956 0.000000 -3.361023
17.850154 0.000000 -0.834891
15.188447 0.000000 3.224319
19.075499 0.000000 3.881108
12.943877 0.000000 -3.166241
16.426908 0.000000 -4.223943
13.652688 0.000000 0.280392
11.078547 0.000000 0.207793
11.224472 0.000000 -0.153379
19.359680 0.000000 -1.921512
15.650176 0.000000 -4.050245
18.614279 0.000000 -3.947576
19.542348 0.000000 -0.007584
15.168961 0.000000 -4.785950
15.938571 0.000000 -1.980666
13.141361 0.000000 -0.928320
19.167950 0.000000 -1.040833
19.741723 0.000000 -2.790819
19.465666 0.000000 -4.533100
11.227425 0.000000 -3.172866
12.894896 0.000000 -2.674344
15.560142 0.000000 1.824750
19.210448 0.000000 -4.424981
10.689970 0.000000 -3.842934
13.667146 0.000000 2.148083
18.718194 0.000000 -1.677344
13.920586 0.000000 1.926473
19.076310 0.000000 3.085269
16.627087 0.000000 -0.205097
11.904475 0.000000 0.309919
10.692341 0.000000 4.847102
10.259475 0.000000 2.140590
14.361915 0.000000 1.804961
12.039554 0.000000 4.194781
19.929688 0.000000 3.694579
14.853152 0.000000 -0.248766
16.878167 0.000000 0.875477
17.073057 0.000000 -2.093558
15.758399 0.000000 4.819242
10.520639 0.000000 -3.579187
13.624752 0.000000 -3.826099
17.303441 0.000000 -2.484264
19.513358 0.000000 3.089798
15.590276 0.000000 -0.626160
16.107655 0.000000 1.574669
16.332817 0.000000 4.583544
13.942613 0.000000 4.149005
16.024174 0.000000 1.411927
15.454666 0.000000 -2.453004
18.943137 0.000000 -3.657292
10.407319 0.000000 -4.462915
10.666687 0.000000 -4.003445
17.761025 0.000000 0.893723
12.503644 0.000000 -4.846789
13.761072 0.000000 -2.227456
14.451934 0.000000 -3.671123
19.637533 0.000000 -2.917950
14.785367 0.000000 -2.863911
17.431286 0.000000 4.738064
11.746500 0.000000 1.916901
13.597649 0.000000 -2.880979
16.433562 0.000000 0.134081
19.818090 0.000000 -1.408464
19.760711 0.000000 0.863058
15.557144 0.000000 -3.288272
14.527873 0.000000 -4.441269
13.873862 0.000000 4.209550
18.231683 0.000000 0.740452
16.980907 0.000000 -1.323874
11.980530 0.000000 -0.184443
17.087311 0.000000 2.807199
11.161748 0.000000 -0.227991
12.968387 0.000000 3.361447
15.382348 0.000000 0.671883
18.219444 0.000000 -2.291838
13.269056 0.000000 4.377351
10.352342 0.000000 4.736393
10.643905 0.000000 -1.144950
16.562180 0.000000 -0.179204
12.938166 0.000000 1.474967
17.082187 0.000000 2.903900
12.959013 0.000000 4.320323
16.657133 0.000000 4.633483
14.953854 0.000000 4.180022
11.702219 0.000000 4.033796
15.474698 0.000000 3.612347
14.686813 0.000000 1.823399
14.276773 0.000000 -0.246376
18.887131 0.000000 -2.855881
17.437782 0.000000 1.655938
11.992361 0.000000 -4.314907
14.330182 0.000000 -4.873102
15.827312 0.000000 3.404638
16.050798 0.000000 -0.639439
18.388057 0.000000 0.614202
10.620582 0.000000 4.860128
11.051164 0.000000 -0.717368
17.767238 0.000000 1.547307
12.650517 0.000000 -0.706836
12.442348 0.000000 -1.906052
16.617179 0.000000 -4.297124
13.495551 0.000000 -4.322246
19.871607 0.000000 -2.571949
14.054083 0.000000 -0.893072
17.983697 0.000000 -3.062695
15.374796 0.000000 2.736835
19.686565 0.000000 0.455858
19.458522 0.000000 -2.394132
17.235436 0.000000 -1.017562
12.201886 0.000000 -2.584601
10.619957 0.000000 3.766027
19.161424 0.000000 -0.594742
11.819687 0.000000 2.079503
13.317743 0.000000 4.149409
18.511696 0.000000 4.058204
16.195595 0.000000 -2.270079
17.192938 0.000000 -1.758915
10.113886 0.000000 -1.465299
14.151198 0.000000 1.607795
11.419997 0.000000 0.196214
12.219163 0.000000 4.781934
19.762752 0.000000 -3.934966
10.976947 0.000000 0.177976
15.871940 0.000000 4.664183
19.885811 0.000000 -3.521094
19.061856 0.000000 1.828685
14.399747 0.000000 4.143416
19.646930 0.000000 -2.972126
12.362005 0.000000 3.621532
12.669720 0.000000 -1.724800
12.745060 0.000000 -4.890300
18.605507 0.000000 -3.131515
10.158970 0.000000 -0.069027
17.017856 0.000000 -2.985537
10.392458 0.000000 -3.471239
15.622670 0.000000 1.827105
14.950148 0.000000 3.275635
14.700399 0.000000 -0.691634
15.109919 0.000000 -3.378634
12.053252 0.000000 -4.980184
15.801007 0.000000 1.064835
15.225000 0.000000 0.903364
18.166175 0.000000 1.909980
13.966130 0.000000 3.966510
12.364138 0.000000 -0.295186
16.599516 0.000000 -1.238440
12.376715 0.000000 -1.638724
11.511028 0.000000 -4.715450
19.127266 0.000000 -0.979386
14.792794 0.000000 2.527102
12.367208 0.000000 3.324247
15.005388 0.000000 -0.134781
19.953809 0.000000 4.399908
19.114288 0.000000 1.416747
15.296737 0.000000 2.122870
13.158008 0.000000 -0.280180
15.575495 0.000000 0.034596
14.890690 0.000000 -2.578769
11.450792 0.000000 -0.036350
17.742129 0.000000 2.404905
15.232362 0.000000 3.177249
11.605012 0.000000 0.864866
19.158709 0.000000 -2.282251
13.937468 0.000000 -3.776734
15.286422 0.000000 3.358364
14.134459 0.000000 3.294068
18.149004 0.000000 -1.380787
11.720874 0.000000 1.410129
14.222484 0.000000 -1.614385
18.074347 0.000000 2.247239
10.260751 0.000000 -2.230574
19.493594 0.000000 -4.727509
19.642200 0.000000 2.056928
18.291306 0.000000 4.047699
13.646505 0.000000 -2.865917
15.591064 0.000000 2.388795
17.813608 0.000000 3.850532
14.300540 0.000000 4.761006
17.124254 0.000000 0.935924
17.058692 0.000000 -0.370286
19.976642 0.000000 -4.758155
18.375825 0.000000 0.083334
17.844405 0.000000 1.988282
15.423014 0.000000 2.119775
11.672761 0.000000 1.828092
17.054649 0.000000 1.048102
17.501936 0.000000 0.539109
12.263309 0.000000 3.490594
14.384729 0.000000 0.085271
13.791279 0.000000 0.979529
18.349385 0.000000 -4.850724
11.933276 0.000000 -2.308721
11.327219 0.000000 4.519590
10.506882 0.000000 3.544297
14.467974 0.000000 0.360299
13.091502 0.000000 -2.383176
11.041221 0.000000 -3.366065
19.599146 0.000000 4.649518
17.403285 0.000000 -2.645253
15.503525 0.000000 -3.811079
15.642735 0.000000 -3.190872
14.874439 0.000000 -3.053717
11.918693 0.000000 2.167694
17.070381 0.000000 -3.798106
14.987769 0.000000 2.897609
15.770252 0.000000 1.766542
14.225701 0.000000 -1.622208
10.863580 0.000000 4.730328
17.552546 0.000000 -4.978071
19.996888 0.000000 2.270744
17.148138 0.000000 2.086629
15.655252 0.000000 -1.651445
11.209681 0.000000 -0.704296
14.443547 0.000000 -0.336561
10.090605 0.000000 3.782681
19.799535 0.000000 2.526584
19.274453 0.000000 3.665935
10.200601 0.000000 3.548283
16.192920 0.000000 -4.931521
16.901081 0.000000 -4.192724
13.385499 0.000000 -0.439987
11.051034 0.000000 -4.303046
19.441922 0.000000 -0.158116
18.831670 0.000000 4.241468
14.285360 0.000000 -2.472415
11.625159 0.000000 -2.079797
15.869174 0.000000 3.289448
19.293991 0.000000 -4.726210
14.584873 0.000000 -4.008198
18.074960 0.000000 -3.558554
14.380638 0.000000 3.703386
16.418357 0.000000 -4.189798
17.682283 0.000000 -2.324236
15.316909 0.000000 2.041574
14.191986 0.000000 0.163189
11.905699 0.000000 0.857058
16.757396 0.000000 4.499242
17.627608 0.000000 -0.794188
13.696133 0.000000 -3.292770
12.959586 0.000000 2.687160
10.267878 0.000000 2.879493
15.347219 0.000000 2.007627
11.277669 0.000000 -3.339107
19.253068 0.000000 -3.693429
15.294992 0.000000 -3.549224
16.662067 0.000000 -2.441938
14.835515 0.000000 -1.382847
11.873957 0.000000 1.908791
17.873861 0.000000 2.493394
19.070330 0.000000 1.067113
17.890751 0.000000 -1.939406
16.714166 0.000000 -0.836886
16.317308 0.000000 3.632655
13.156064 0.000000 -0.632526
12.921494 0.000000 -4.079477
16.942191 0.000000 2.008754
13.425224 0.000000 4.719078
14.751245 0.000000 -4.105349
17.738700 0.000000 2.650337
13.500596 0.000000 3.098122
16.864816 0.000000 4.410532
14.981452 0.000000 -3.517143
11.206242 0.000000 -4.707418
13.997142 0.000000 -2.048173
15.080270 0.000000 -1.781066
15.948643 0.000000 -1.955511
15.051990 0.000000 -0.084026
19.871096 0.000000 -0.686797
16.430992 0.000000 4.173614
13.740983 0.000000 -3.803625
12.202189 0.000000 -1.419213
19.336382 0.000000 -2.001691
11.698213 0.000000 -4.491059
17.906903 0.000000 -2.324913
19.885710 0.000000 4.255992
12.091077 0.000000 -1.475842
19.087632 0.000000 2.314738
18.762024 0.000000 -2.377436
18.141223 0.000000 3.800314
10.375307 0.000000 3.231902
17.559786 0.000000 -3.776352
18.485344 0.000000 -2.680351
18.697664 0.000000 1.878578
19.269555 0.000000 0.338071
15.703296 0.000000 -3.452304
12.105410 0.000000 -2.048553
18.162827 0.000000 -2.189857
11.759670 0.000000 -4.700432
16.640688 0.000000 4.829734
19.629341 0.000000 3.431860
14.341127 0.000000 -3.100875
10.908601 0.000000 3.439604
16.552926 0.000000 4.342677
18.734652 0.000000 -0.569033
14.381764 0.000000 -4.280491
18.427487 0.000000 1.745438
10.367404 0.000000 3.157642
18.980544 0.000000 -2.322940
12.947050 0.000000 -2.313252
19.743906 0.000000 1.534057
17.359924 0.000000 -3.032830
15.072754 0.000000 2.565340
11.527072 0.000000 1.380884
11.752201 0.000000 -4.561085
15.531574 0.000000 4.764796
11.489264 0.000000 2.549355
14.467819 0.000000 3.934549
11.746997 0.000000 -3.943081
19.226190 0.000000 3.009743
18.297519 0.000000 3.945608
18.184204 0.000000 -2.563389
11.008774 0.000000 0.343409
19.536475 0.000000 1.239140
13.257675 0.000000 -2.546563
16.580674 0.000000 -3.082279
13.661020 0.000000 -1.987898
13.682158 0.000000 -2.374930
13.832473 0.000000 3.714070
11.698055 0.000000 3.661011
10.621629 0.000000 -3.665995
14.343242 0.000000 0.148231
12.778980 0.000000 0.248101
15.422370 0.000000 2.584348
12.673573 0.000000 4.029512
18.743653 0.000000 2.583055
18.713717 0.000000 -4.241232
13.428685 0.000000 2.027671
16.164504 0.000000 3.800055
10.307492 0.000000 2.383976
17.624215 0.000000 -0.071566
11.051512 0.000000 -3.082892
11.654414 0.000000 -3.438201
11.917783 0.000000 0.329574
15.037978 0.000000 -0.969445
19.063276 0.000000 1.792469
19.486781 0.000000 1.352293
11.271971 0.000000 -3.360208
13.813215 0.000000 4.389240
17.411713 0.000000 1.192756
19.184280 0.000000 0.343798
16.248435 0.000000 1.602308
11.376739 0.000000 1.441405
17.853733 0.000000 -0.798904
14.024776 0.000000 3.363516
19.523772 0.000000 -1.604799
11.051126 0.000000 -4.642658
18.913667 0.000000 3.519336
17.127061 0.000000 2.104905
14.379495 0.000000 1.440136
11.501187 0.000000 -1.937871
15.054235 0.000000 -1.015513
18.905399 0.000000 -1.873580
18.634144 0.000000 1.880287
19.957535 0.000000 3.010776
16.367198 0.000000 0.476934
13.065753 0.000000 -0.300726
16.355186 0.000000 -4.390395
11.717645 0.000000 3.182059
19.848387 0.000000 -0.747887
16.690640 0.000000 -4.940860
19.483945 0.000000 -2.778420
10.409625 0.000000 -0.811642
17.115049 0.000000 1.421357
12.047718 0.000000 4.422777
12.267844 0.000000 0.173132
15.923555 0.000000 4.594908
18.150402 0.000000 3.604222
17.860623 0.000000 2.949408
12.262119 0.000000 1.858020
19.427746 0.000000 -1.194837
17.689476 0.000000 -3.523683
17.280045 0.000000 -3.400229
18.274245 0.000000 -1.554326
12.939522 0.000000 -3.102797
19.762650 0.000000 -2.845058
16.531913 0.000000 2.670983
11.916639 0.000000 4.778974
19.678770 0.000000 -2.755903
19.289814 0.000000 2.825815
19.537508 0.000000 -1.980371
14.759331 0.000000 -3.339350
13.626441 0.000000 -2.199818
10.223288 0.000000 2.776993
16.532501 0.000000 -1.858424
10.311819 0.000000 -3.040843
13.021325 0.000000 -1.091125
10.029844 0.000000 -0.568454
12.393099 0.000000 2.758539
11.991856 0.000000 -0.565242
13.511128 0.000000 -1.330233
10.440276 0.000000 -2.138563
18.244034 0.000000 2.635549
16.095370 0.000000 4.579875
11.301052 0.000000 -0.150529
18.228433 0.000000 -2.604577
10.902039 0.000000 -2.504071
15.429586 0.000000 4.460340
19.182048 0.000000 -2.235847
12.621705 0.000000 2.287627
11.599369 0.000000 -2.272158
18.506933 0.000000 4.896388
11.169081 0.000000 -2.655953
11.453902 0.000000 -1.437737
17.306587 0.000000 2.064067
14.437493 0.000000 -1.022809
10.885786 0.000000 4.200038
19.532449 0.000000 1.937242
16.302409 0.000000 -1.316536
15.511672 0.000000 -0.430202
16.420200 0.000000 3.700484
12.989932 0.000000 1.779942
18.271184 0.000000 -4.942860
19.270875 0.000000 2.123981
12.181379 0.000000 -2.873657
17.964044 0.000000 2.444970
18.572353 0.000000 -4.001291
17.522018 0.000000 1.388129
12.190822 0.000000 3.278843
18.274578 0.000000 3.196617
15.260319 0.000000 1.384511
15.491350 0.000000 1.485689
18.542779 0.000000 0.149592
17.005761 0.000000 0.216665
10.170733 0.000000 4.150034
10.308438 0.000000 -1.423815
12.303464 0.000000 -2.867589
13.696239 0.000000 3.353444
15.949473 0.000000 3.876940
17.362178 0.000000 2.567113
12.173188 0.000000 -0.820698
10.482234 0.000000 0.033226
18.416305 0.000000 -2.094048
11.318448 0.000000 3.107290
11.640741 0.000000 -2.960680
14.680735 0.000000 1.969290
13.883917 0.000000 -0.767078
15.391723 0.000000 -2.874847
12.665334 0.000000 4.663414
11.021597 0.000000 3.066806
18.666851 0.000000 1.482993
19.190606 0.000000 0.482965
17.930652 0.000000 -0.288940
16.224680 0.000000 2.370635
14.589800 0.000000 -2.302347
14.020695 0.000000 0.292570
16.936169 0.000000 -0.951643
15.687474 0.000000 -1.777901
12.343497 0.000000 -4.848918
17.155061 0.000000 -2.165245
11.637177 0.000000 1.465738
13.821416 0.000000 -2.184662
10.393354 0.000000 2.348205
14.581265 0.000000 4.045008
14.369290 0.000000 -2.836132
17.564326 0.000000 -3.578430
16.963141 0.000000 -0.180496
16.865524 0.000000 0.622523
12.953927 0.000000 -3.084229
17.834821 0.000000 2.567503
19.417580 0.000000 2.766467
18.098377 0.000000 0.813971
17.945827 0.000000 -1.211806
15.744942 0.000000 2.952733
17.392579 0.000000 2.057329
13.196108 0.000000 1.204962
19.595268 0.000000 3.689151
10.630192 0.000000 4.365778
19.361059 0.000000 3.417581
10.598947 0.000000 4.674559
13.120515 0.000000 -4.607782
14.666484 0.000000 -2.625233
12.983981 0.000000 -4.284794
15.164074 0.000000 4.150578
12.750097 0.000000 -3.919842
12.475623 0.000000 -2.277707
19.452391 0.000000 -4.021017
19.139969 0.000000 -0.772374
11.442521 0.000000 -1.614889
15.616721 0.000000 -2.760232
10.933414 0.000000 -3.124978
19.840950 0.000000 4.379315
14.243341 0.000000 1.165965
19.969341 0.000000 -2.708437
16.097675 0.000000 2.288916
17.662239 0.000000 -1.695074
11.151478 0.000000 4.878612
14.698394 0.000000 2.079649
15.141023 0.000000 -0.727394
10.035859 0.000000 4.739584
18.938802 0.000000 -2.476654
10.978683 0.000000 -2.366710
13.240534 0.000000 -1.098011
12.203468 0.000000 0.829559
16.993746 0.000000 -3.989627
17.919063 0.000000 4.067409
13.456642 0.000000 -2.961953
13.386494 0.000000 -3.406518
12.895500 0.000000 1.636823
18.875498 0.000000 -4.920736
16.523146 0.000000 -4.098660
16.869070 0.000000 4.966938
16.354150 0.000000 -1.993905
14.365186 0.000000 -4.773718
17.025122 0.000000 3.911813
10.550231 0.000000 3.526027
15.865404 0.000000 4.136946
14.162606 0.000000 1.140166
14.537661 0.000000 -3.545927
15.695805 0.000000 4.202425
14.229606 0.000000 2.398744
14.553794 0.000000 2.567198
14.514284 0.000000 1.379759
14.981961 0.000000 -3.615664
13.630895 0.000000 -1.213969
11.323683 0.000000 0.588480
19.800860 0.000000 3.567204
10.607601 0.000000 2.565586
10.145406 0.000000 2.961644
10.509279 0.000000 2.236909
12.358251 0.000000 -3.257915
17.553145 0.000000 3.035218
17.595844 0.000000 4.964910
15.519449 0.000000 -0.140180
14.193136 0.000000 2.266677
13.021933 0.000000 4.668734
14.780214 0.000000 3.937069
10.548677 0.000000 2.950205
19.581745 0.000000 2.225374
15.096418 0.000000 -2.217921
15.697297 0.000000 0.731879
11.167487 0.000000 -1.335864
13.931773 0.000000 1.121687
11.973462 0.000000 1.975748
10.224267 0.000000 4.675022
11.233809 0.000000 -1.636516
13.875596 0.000000 3.535450
12.574508 0.000000 1.457763
10.632259 0.000000 -2.825265
16.015725 0.000000 -0.614136
19.182815 0.000000 4.102300
19.340748 0.000000 -3.046803
18.764603 0.000000 2.673244
18.163966 0.000000 -2.879197
15.754481 0.000000 -4.551437
10.693649 0.000000 -1.843978
19.635303 0.000000 -0.346054
16.368841 0.000000 -2.856558
17.809623 0.000000 -2.576213
13.080184 0.000000 -3.940922
12.476723 0.000000 -3.631683
15.069603 0.000000 -4.496563
15.966890 0.000000 2.918018
16.928210 0.000000 0.637969
10.207283 0.000000 1.618468
12.262309 0.000000 1.058362
14.215229 0.000000 -1.029799
17.989579 0.000000 -0.883607
19.881875 0.000000 -2.622647
11.437614 0.000000 -1.984858
11.683460 0.000000 2.393958
19.849991 0.000000 3.336425
10.627474 0.000000 -4.301206
18.094727 0.000000 0.692995
19.349308 0.000000 -4.633170
17.491288 0.000000 -3.663069
10.456208 0.000000 0.934423
14.542393 0.000000 -1.522253
13.110869 0.000000 -0.676188
18.410211 0.000000 -3.732238
18.059654 0.000000 0.768024
18.884955 0.000000 -4.401687
11.932624 0.000000 -0.104888
18.326893 0.000000 -4.825056
16.285575 0.000000 2.605571
16.518420 0.000000 2.403904
10.646505 0.000000 2.935940
14.774090 0.000000 3.618744
17.962220 0.000000 -0.129960
12.994503 0.000000 4.781632
16.763049 0.000000 -4.190034
18.605444 0.000000 3.505532
13.890741 0.000000 -1.224541
12.481405 0.000000 -4.057907
12.985955 0.000000 4.271317
10.228853 0.000000 -0.637767
18.845058 0.000000 0.943718
17.279356 0.000000 -3.836080
16.734375 0.000000 3.245232
15.213516 0.000000 -1.185017
17.429503 0.000000 3.897496
12.957600 0.000000 -4.429764
18.169751 0.000000 -2.153934
10.580447 0.000000 4.980673
15.160769 0.000000 -2.296189
18.722367 0.000000 -2.137998
11.321997 0.000000 2.764334
10.350384 0.000000 -3.076342
15.755543 0.000000 -2.109039
11.446522 0.000000 1.766367
10.488968 0.000000 3.590134
11.127414 0.000000 -3.908159
13.669052 0.000000 -3.666116
11.559519 0.000000 0.980595
11.282471 0.000000 2.167911
11.037741 0.000000 -4.006109
13.744813 0.000000 4.271065
10.801173 0.000000 -3.874640
17.624495 0.000000 2.725620
19.411031 0.000000 4.054914
18.289237 0.000000 4.639331
13.317809 0.000000 1.581110
16.733326 0.000000 3.301674
11.971702 0.000000 4.433039
34.841417 -1.249271 -1.031309
25.383951 1.921481 -3.360521
25.203215 -1.410974 -3.420175
34.674017 1.775829 -3.414332
33.165340 -3.870481 -4.516593
27.703036 4.441166 -3.898206
32.936292 4.046997 4.289356
29.820344 -4.996771 -0.789651
27.305156 4.211629 -2.346102
26.087282 3.112979 4.651123
25.114941 -1.065925 -1.179377
27.404686 4.273680 4.850001
26.273387 -3.333520 2.933311
31.764581 -4.678275 -2.611268
25.887484 -2.843803 -3.276538
31.871800 -4.636417 -3.034880
31.782769 -4.671374 3.330427
25.309625 -1.732160 4.928896
32.000616 -4.582307 1.408341
34.770036 1.498918 3.997650
29.925885 4.999451 1.931676
25.235574 -1.516657 0.987765
27.690931 4.434885 3.635088
32.194811 -4.492528 0.492272
25.007119 -0.266717 -3.241437
25.508316 -2.196537 -2.568374
32.664760 -4.230728 -4.042626
28.457827 4.756228 -4.365161
31.624598 -4.728708 0.339796
25.070815 -0.838530 1.415245
25.568591 2.315733 -1.063072
27.002600 -4.001949 4.583836
33.939383 -3.079166 -3.539425
25.354302 -1.848646 1.656202
31.848784 4.645643 3.855368
27.341786 4.234844 4.144232
34.887503 1.054665 3.481664
33.849879 -3.190365 0.796705
32.292984 -4.443223 -1.771068
30.895293 -4.919192 -0.105075
25.696420 -2.545428 -2.073329
25.817681 -2.740111 -3.923788
34.436087 -2.306757 4.608056
33.006103 3.995415 2.480380
25.028442 0.532551 -4.089111
33.390407 -3.674934 -2.811264
34.998582 -0.119083 2.061399
32.202653 4.488688 -2.417862
34.314763 2.526424 -3.548102
25.438488 -2.047586 3.424822
25.521993 -2.224288 -4.872527
32.387146 4.393351 2.334996
26.740439 -3.791472 -3.125133
25.246140 -1.549457 4.103955
34.111687 2.845001 4.060240
25.315126 -1.746986 4.693799
33.392125 -3.673348 -2.435225
29.938848 4.999626 -3.056105
26.505381 3.575980 1.779758
34.929130 0.838853 -3.698740
27.699376 -4.439271 -1.710490
34.391075 -2.391330 -1.789533
28.497245 4.768829 0.625435
25.034829 -0.589131 4.420938
25.366858 1.879893 1.827108
25.126489 -1.117536 4.898195
26.117435 -3.150507 -1.362783
32.841874 -4.113849 1.661936
34.921921 -0.880165 1.828770
25.023239 -0.481508 -4.350809
29.173555 -4.931226 -3.174726
29.387342 -4.962323 -0.766513
33.598843 3.471070 -0.536261
25.473071 2.122949 0.473072
27.331634 -4.228454 3.076833
33.502881 3.567888 -4.663219
30.650451 4.957511 -3.169057
34.256163 -2.623942 3.236292
34.100493 2.861111 -2.293643
26.446365 -3.517340 3.920437
34.690661 -1.731386 1.669345
31.259415 -4.838789 4.909677
34.999949 0.022487 -0.490524
30.850009 -4.927219 -0.094022
33.841435 3.200528 1.433638
32.378985 -4.397775 3.767812
27.903664 -4.539314 1.252572
25.928427 2.902118 -3.616287
28.892713 -4.875850 1.346725
27.138794 4.100427 -4.258227
34.931038 0.827562 0.895796
33.764492 3.290684 2.473204
26.265477 3.324656 4.121026
34.896626 1.011462 -1.160553
25.133861 1.149212 1.626382
25.858162 -2.800925 1.713191
31.014771 4.895941 1.162553
34.501892 -2.175538 0.894949
27.981744 4.574565 0.475582
34.994528 -0.233854 2.707153
34.945953 -0.733177 -4.784902
25.123041 1.102392 -2.617317
34.595374 1.970417 2.287066
28.613407 4.803890 4.053937
33.307734 -3.749520 -2.735899
27.863473 4.520537 1.443612
25.891266 2.849263 -1.681669
28.872347 4.871181 1.005624
27.706723 -4.443071 1.067913
32.277838 4.451006 -3.926301
32.710016 -4.201882 2.233427
25.416344 -1.997522 -4.454481
34.410074 -2.356108 0.841413
25.460668 2.096298 3.465017
25.000424 -0.065118 0.271962
27.871548 4.524344 1.320489
30.413921 -4.982837 -4.774861
34.205537 2.704340 3.649736
33.820570 3.225406 1.247004
25.357083 -1.855619 -1.126367
29.879298 4.998543 -2.149014
31.019971 -4.894860 3.484345
34.974506 0.504269 0.896528
28.505450 4.771407 -4.335739
30.571735 4.967204 -2.522158
26.651213 -3.712900 -3.643744
27.472047 4.313868 -4.961215
26.712683 -3.767433 -2.104046
29.786671 4.995447 -4.343572
25.081984 0.901730 2.619572
29.074500 4.913598 -2.341147
30.371821 4.986156 3.461689
26.164306 3.207405 4.655004
28.098485 4.624310 -4.616078
30.457091 4.979063 -3.421347
31.440327 -4.788054 0.429673
25.026114 0.510352 0.496245
27.916908 -4.545407 0.048859
34.930372 0.831522 1.880316
33.284332 3.770035 1.519540
25.343161 1.820398 0.962356
34.622689 1.905452 -4.710714
33.121364 -3.906032 -0.372025
27.790052 4.485101 3.943549
25.771509 2.668307 1.762759
34.521589 -2.134299 2.407230
34.224269 2.674986 -4.057327
31.632502 -4.725985 2.128994
32.534203 4.310199 -4.808762
28.615714 -4.804555 -2.328418
34.995479 -0.212587 3.994044
34.991463 -0.292051 1.707117
32.339749 4.418775 -2.255228
33.334709 -3.725549 2.092654
32.846423 4.110703 4.591831
27.568420 -4.368915 1.127223
29.098841 -4.918121 0.433935
28.550851 4.785391 -1.643128
34.968262 0.562471 -2.982947
29.247624 -4.943069 -3.265826
34.818472 -1.335037 -3.334288
26.074489 3.096831 0.036356
25.019404 0.440072 -1.253516
28.575634 -4.792826 -1.167535
26.965744 3.974078 4.913429
25.059919 -0.771748 -4.764068
31.481578 -4.775450 2.543805
33.686349 3.377992 0.794747
34.960945 -0.623719 2.843443
34.440196 2.298839 4.550266
33.735433 -3.323633 2.850741
32.496625 -4.332074 -3.579368
34.998818 0.108720 2.288523
29.819022 4.996724 0.781363
25.241315 1.534574 -0.372797
25.034665 0.587746 0.467969
27.836638 -4.507756 -2.383301
32.704971 -4.205132 1.479258
33.968199 3.041940 2.775380
26.227448 -3.281441 4.536507
28.933319 4.884894 1.063924
31.273223 -4.835174 2.326829
28.877083 4.872274 4.567098
25.771842 -2.668835 -2.712711
27.070258 -4.051742 -1.390934
34.651632 -1.833664 4.056256
26.899914 3.922941 -0.876998
26.262330 -3.321118 -3.010018
25.588426 -2.353298 2.454572
25.130078 1.133077 -3.930139
25.905176 -2.869219 2.373270
25.007324 -0.270535 0.962909
34.106252 -2.852840 4.958278
25.289790 -1.677476 -1.548979
25.517403 -2.215022 -0.246627
25.231417 1.503534 4.662346
26.170763 -3.215111 -4.716256
33.286928 3.767771 -4.474828
34.999652 0.059027 1.137916
25.343049 1.820112 2.339258
34.113270 -2.842712 -2.593312
32.471492 4.346462 -4.247644
34.741560 -1.586696 -0.000803
34.385209 -2.402070 -1.393390
30.081246 -4.999340 -3.466296
29.565970 -4.981126 1.829529
34.994676 -0.230678 -4.381782
32.727978 4.190243 -4.038888
33.411554 3.655311 2.883080
29.411576 4.965255 4.480834
28.246171 4.682316 -1.977210
33.728730 -3.331152 -1.159172
27.486454 4.322278 2.784646
34.533829 2.108174 0.870535
26.702716 -3.758712 -3.617315
33.525955 -3.545087 -0.731737
34.536424 2.102584 0.452404
34.846896 1.227842 4.008841
25.858196 -2.800974 3.684606
33.938824 -3.079881 -0.052531
25.255179 1.576918 4.196626
26.353973 -3.421474 -4.381111
30.196990 4.996118 -2.807052
28.031841 -4.596341 -0.687606
25.001407 -0.118596 4.712856
33.421603 -3.645906 0.438347
32.233284 4.473527 -0.730516
33.129629 3.899413 -0.449338
31.715835 4.696372 -2.474342
34.805584 1.380711 0.810198
26.026542 3.035067 1.823853
31.176996 4.859494 -0.149472
25.160581 1.256992 2.942494
33.304670 3.752220 1.846429
26.033405 3.044031 -2.029095
33.462900 -3.606705 3.289592
34.984111 -0.398296 -1.780877
34.999939 0.024759 -2.166559
25.797539 2.709117 -1.775580
26.299655 3.362655 -1.084655
30.585604 4.965588 -2.633047
33.921292 -3.102171 -3.623558
29.240651 -4.942002 -2.398451
34.566436 2.036582 0.845397
26.248996 -3.306051 -2.647711
27.558209 4.363217 -3.640373
27.438983 -4.294321 -0.574452
25.001689 0.129967 -3.394901
32.898170 4.074385 -3.499209
32.345320 -4.415821 0.418257
25.059285 0.767685 0.438623
25.641143 -2.449564 3.606305
28.603129 -4.800912 -2.782794
34.959416 0.635762 3.208378
25.891322 -2.849345 -2.022820
34.478620 -2.223053 -4.750861
34.291352 -2.565988 2.528920
34.991239 -0.295864 -3.316775
31.280802 4.833172 -1.504279
30.713050 -4.948895 1.919726
27.278950 4.194745 1.773941
33.778967 3.274051 -2.730435
34.148582 2.790926 4.136909
30.491894 -4.975745 -0.396291
25.345811 -1.827163 -3.919261
26.992916 -3.994677 -4.166804
29.463542 -4.971138 -1.587160
29.229668 -4.940303 -1.210142
32.129260 4.523964 0.090007
32.728460 4.189929 1.228100
31.707503 4.699408 3.965281
29.796967 -4.995876 -4.778891
32.236033 4.472154 -2.036827
25.426432 -2.020514 -4.332417
33.148845 3.883912 -1.421162
25.161619 1.260981 4.900757
25.218905 1.463259 -0.293940
25.132196 -1.142141 0.518131
29.180744 4.932425 -4.864902
33.704158 3.358455 1.733636
26.692289 -3.749540 -2.949981
25.432489 2.034168 4.872296
25.397424 -1.953533 1.006701
31.112970 4.874556 -4.537261
25.000001 0.002704 -4.705789
34.962952 0.607543 -4.333374
29.672583 4.989268 -4.455372
25.220480 -1.468398 1.307192
29.784201 4.995341 -4.824563
28.699855 4.828004 2.940689
29.763536 4.994405 0.705622
28.708489 -4.830321 3.620872
33.342237 -3.718797 2.540343
34.715556 1.662388 -3.856321
27.024126 -4.017981 1.929908
28.974397 -4.893683 -1.903605
34.538151 2.098853 -4.846240
33.468572 -3.601251 4.172778
34.527484 2.121765 -0.285589
33.176116 3.861643 -4.211475
33.547391 -3.523637 2.401552
31.590673 -4.740228 -0.165344
25.412802 -1.989375 1.583158
31.088426 -4.880095 3.771295
30.142155 4.997979 3.122756
28.285247 4.696767 2.762982
32.854109 4.105370 2.516683
29.604110 -4.984302 1.275603
25.004111 -0.202708 -1.725186
34.994765 -0.228733 -0.783184
28.816875 -4.858005 -1.664905
34.842091 1.246657 -2.347751
27.491415 -4.325159 -1.944952
26.524585 -3.594648 4.832564
25.004596 -0.214325 2.408940
33.790982 -3.260131 4.179058
27.697903 4.438508 -1.665821
29.128461 -4.923456 -0.733481
33.438012 -3.630437 4.045022
25.167474 1.283234 -1.986506
29.630971 -4.986363 -0.978992
32.250126 -4.465079 4.705978
30.588168 -4.965285 2.794252
33.304653 3.752235 -4.160259
31.050467 -4.888407 -3.932932
27.075464 -4.055501 -2.376115
26.620344 3.684823 -3.732912
25.115106 1.066680 -4.776510
26.205297 -3.255799 0.368249
32.808371 -4.136792 4.999166
28.521088 -4.776277 -1.180530
31.909767 -4.620908 -1.638118
34.979027 -0.457486 3.149941
26.596921 -3.663203 1.337589
34.902555 -0.982319 1.225321
34.284980 -2.576615 -1.570529
26.562941 -3.631339 3.977339
27.899847 4.537550 -0.560751
31.907992 -4.621641 0.261807
31.227886 4.846885 3.377099
34.993297 0.258823 -1.921350
28.171424 -4.653634 -2.212623
27.970801 -4.569721 -3.359267
34.935207 -0.802329 1.137007
25.486294 -2.150920 3.843843
25.853709 2.794329 3.749140
31.992045 -4.586039 -0.981470
28.971822 4.893143 1.008259
26.936852 3.951851 4.075180
27.854792 -4.516424 2.382370
34.466748 -2.246811 -3.384249
34.598164 1.963897 1.644455
26.271062 -3.330919 0.634232
30.671310 -4.954729 1.792200
28.147373 -4.644112 3.220897
25.000162 -0.040252 -3.570577
34.655235 1.824496 -4.588450
34.889919 1.043406 4.432368
30.980563 -4.902907 -1.795055
27.909568 -4.542036 4.888511
25.613116 -2.399010 -0.768569
25.036877 0.606145 -2.123450
28.417458 -4.742949 0.144941
32.584134 4.280450 0.633122
34.142761 2.799559 1.065150
34.954971 0.669521 -2.503508
26.333693 -3.399735 -4.601041
27.028400 4.021143 -3.658850
30.140122 -4.998036 0.581531
27.389743 4.264570 0.960963
34.506915 2.165114 -3.168942
27.836040 -4.507469 -3.966850
31.224833 -4.847657 3.811604
34.901835 -0.985908 -0.385533
34.809080 -1.368485 2.223140
25.395445 -1.948865 -3.980421
32.908067 -4.067327 -4.888117
25.554042 2.287675 4.146761
32.722016 -4.194118 -2.328425
29.325183 4.954253 2.845672
32.205514 4.487283 3.618065
34.729563 1.622107 -2.582553
34.376136 -2.418560 3.189785
27.508951 -4.335282 -1.128909
25.958788 2.944250 -4.152599
33.115138 -3.910999 3.012287
34.969746 0.549201 1.525230
25.084709 0.916471 -4.256477
25.467195 2.110373 -2.115691
25.019201 0.437765 0.543353
27.625572 4.400238 -1.848144
28.102056 -4.625777 4.031809
33.254288 3.795999 -4.803327
29.618529 4.985427 2.080615
30.850088 4.927205 -4.181293
30.734598 4.945742 1.587367
29.219170 4.938654 -3.776097
30.165838 4.997249 1.625579
27.729076 -4.454537 -0.227684
25.269496 -1.619362 1.743111
34.884681 -1.067658 -2.254567
25.784761 2.689194 2.261271
25.009259 -0.304146 4.399290
33.989029 -3.014573 -2.444050
28.271772 -4.691826 1.610028
34.444023 -2.291432 2.575268
28.248100 -4.683038 -1.076618
26.629836 -3.693507 -0.208619
29.136725 -4.924912 -0.872239
27.615949 4.395031 2.643234
33.657692 -3.409001 1.870259
34.342597 -2.478276 0.265481
26.983280 3.987405 -3.629509
