-0.002395 4.999999 2.614366
3.713680 -3.347922 -4.786088
4.662009 -1.807116 -0.924113
1.528792 4.760546 3.829793
3.567855 3.502915 2.684976
-3.782952 3.269445 -3.619289
-4.919611 0.892989 -0.815694
-4.912566 -0.930967 -3.136415
1.199718 4.853934 -2.526721
-4.360301 -2.446993 4.995056
2.791222 -4.148383 -2.627049
4.805708 -1.380278 0.770265
-4.308558 -2.536993 -0.317138
1.710265 4.698403 -1.968143
2.639909 4.246278 -1.927847
-4.883293 1.073990 -4.498301
-2.571414 4.288103 -2.975935
-4.896116 -1.013927 -0.085655
-3.142169 3.889316 2.184479
1.311149 4.825027 -0.332148
0.648428 -4.957776 3.358238
-2.299178 -4.440021 -2.564707
4.634862 1.875647 2.668223
-2.542033 4.305585 -4.785386
2.823475 4.126499 -1.922553
-0.522380 -4.972637 4.086343
1.814710 4.659059 3.515295
-1.524344 4.761972 3.337483
4.237981 2.653209 2.613052
2.581321 -4.282147 -0.018041
2.887433 4.082001 0.231447
3.370784 3.692941 -2.685705
-4.998156 0.135785 -4.998795
3.631254 -3.437150 0.612207
0.276575 -4.992345 -2.479012
-1.793730 -4.667176 2.517618
-4.988570 0.337896 -1.165205
4.454597 2.270807 -1.191288
-1.465096 -4.780533 3.758209
1.067922 -4.884623 3.436513
-3.418360 -3.648947 1.631381
-2.197716 4.491107 -2.527272
4.854914 -1.195748 -0.034707
-0.593523 -4.964648 -0.996414
-4.575333 2.016514 -0.836846
-4.106489 -2.852499 -0.077500
-4.388233 -2.396541 -4.204662
2.755618 4.172118 0.178949
4.927388 0.849025 -3.932862
-1.398107 -4.800552 2.767126
-4.988633 0.336956 -4.822215
3.834279 3.209097 -0.072082
-0.617766 -4.961690 -3.670944
-0.948799 -4.909153 2.496383
3.777309 -3.275964 2.745472
4.832222 1.284380 3.153553
-0.710956 -4.949196 -1.734476
3.295769 -3.760041 2.321720
-2.028081 4.570217 4.338556
1.669675 4.712980 -1.911773
0.987818 4.901450 -0.746582
-2.137730 -4.519968 3.301017
-4.598191 -1.963832 3.861062
-1.383352 4.804824 -2.668170
-3.794654 -3.255856 3.161705
-4.999901 -0.031424 -2.816744
-4.880797 -1.085276 4.840712
-4.410302 -2.355682 2.236079
-4.995676 0.207886 0.853072
-0.804205 4.934902 -1.815338
2.310925 4.433918 1.422850
3.725421 -3.334853 -0.400627
-2.922692 -4.056830 3.351048
-0.503476 4.974587 -0.372342
4.999999 0.003769 3.889828
4.901463 -0.987757 4.097771
-4.605136 1.947491 -1.035954
-2.504383 4.327594 -4.477786
0.057507 4.999669 -1.690012
-4.997236 -0.166229 -0.812165
-4.973866 -0.510545 -4.253214
-3.187284 -3.852431 3.069913
-0.855399 -4.926286 -3.665238
-4.999972 -0.016712 1.171559
1.079008 4.882186 -3.515986
-4.926269 -0.855497 0.984033
-4.486542 2.207020 3.046143
-1.946255 4.605659 4.360980
-3.534310 3.536758 -2.010051
-1.169561 4.861289 -1.671696
-1.531768 -4.759589 -3.960030
4.438443 -2.302221 -3.274974
4.848049 -1.223283 2.828175
2.782978 -4.153918 1.110378
4.647437 -1.844268 -4.907608
-4.040694 -2.944961 -2.712642
-1.617607 4.731104 0.587016
-4.533244 -2.109430 -2.555855
-4.955779 -0.663518 1.154398
0.801642 4.935319 -3.646397
0.072747 4.999471 2.829196
-2.729646 -4.189157 -3.858338
2.948408 4.038179 -1.341859
2.308359 -4.435254 -2.938616
1.108662 -4.875538 4.815617
-4.999522 0.069154 0.731183
3.681345 -3.383445 1.246020
-3.044651 3.966119 2.978620
-4.421378 2.334826 0.173351
-4.933281 0.814088 -0.433444
-0.724056 -4.947297 1.334018
4.969691 -0.549698 1.703264
0.083224 4.999307 -4.885271
-0.128943 -4.998337 4.336047
3.399321 3.666691 0.037386
-3.682389 3.382309 1.998991
3.627447 3.441166 1.559720
4.421510 2.334576 -4.394278
3.597447 3.472517 4.939660
-3.665091 3.401045 3.879445
4.255119 2.625635 -0.194929
1.933535 4.611013 -0.492804
-3.441274 3.627345 4.125834
-4.223369 -2.676407 -0.333394
3.668497 -3.397371 1.851851
0.727819 -4.946744 2.512408
2.207205 -4.486451 2.230317
-1.042589 -4.890093 -0.362751
-0.591027 -4.964946 1.190311
3.583185 3.487232 4.910194
-2.155640 4.511454 -2.572484
1.905477 -4.622679 -1.986638
3.808003 -3.240233 -2.002043
-2.096641 4.539174 -1.559872
4.759228 1.532889 1.652426
-4.856967 1.187381 -0.653636
-0.882222 4.921553 0.246378
3.451144 3.617956 1.082177
-4.467346 -2.245623 -3.021833
-3.707436 3.354835 -3.547807
-4.290586 -2.567270 -2.428547
3.093129 -3.928429 -0.235739
-2.056423 -4.557535 -4.851433
-3.961718 -3.050376 1.717450
-0.354935 -4.987386 0.467818
3.847050 3.193776 -4.650369
-4.048224 -2.934600 -4.680301
-4.766535 1.510015 -0.880246
-1.675578 4.710885 -1.188717
-4.844560 -1.237029 -4.541682
-4.676357 1.769657 -2.808406
1.519692 -4.763458 -2.597281
1.761678 4.679369 4.401049
4.988068 0.345216 -4.165490
4.999255 0.086288 3.454816
1.977463 -4.592346 -0.512282
4.212310 -2.693778 0.629065
1.593814 4.739173 -1.917860
4.706164 -1.688793 0.121076
2.826576 4.124375 -2.461439
1.432927 -4.790273 -0.357608
-2.221722 -4.479280 -3.259115
4.090564 2.875289 3.225266
-4.601850 1.955243 2.974893
-4.998902 0.104801 1.882223
-3.783800 3.268464 -2.371988
2.697144 4.210156 -0.013421
-4.630129 -1.887300 4.643686
-2.915545 4.061970 3.981483
-3.811006 -3.236701 -0.642332
-4.033092 -2.955363 0.063354
-2.926582 4.054025 -1.733691
-4.944081 -0.745695 2.933617
-4.727306 1.628672 0.902939
3.519555 3.551441 -4.347899
-4.082321 2.886980 -4.840844
-0.912165 4.916091 2.476595
2.318889 -4.429758 -3.037741
1.960064 -4.599799 3.989923
-4.719103 1.652292 2.077726
-4.500724 -2.177955 0.757947
-2.651958 -4.238764 1.820222
4.915761 -0.913946 2.282673
-0.321599 4.989647 0.860839
1.674010 -4.711442 -0.830462
-0.567875 -4.967647 1.764037
0.295513 -4.991260 -4.337825
4.875535 1.108676 4.338255
1.241309 -4.843465 4.159859
-4.992346 -0.276548 -0.589869
-2.591533 4.275975 -0.760420
3.830442 -3.213676 -2.295497
4.431570 2.315424 -4.921172
4.927444 0.848704 -1.394559
4.252260 -2.630263 2.270821
-4.294789 -2.560232 3.972216
4.431252 -2.316033 1.341333
-3.119608 3.907435 -0.378789
4.866695 -1.146855 -1.853489
4.966864 0.574684 -1.599579
4.608965 -1.938411 -2.455580
-1.714987 4.696682 2.077197
-3.481877 -3.588388 -0.968559
-2.373666 -4.400649 1.025838
-4.645096 1.850158 -4.257305
4.997094 0.170451 -1.439145
4.949517 -0.708717 0.314194
-4.965757 0.584176 0.529977
-4.346454 2.471504 -4.756319
-3.885385 -3.147028 -3.055606
-1.214270 4.850314 -3.618841
-4.570927 -2.026481 -1.706885
-4.572096 -2.023842 4.514775
3.898496 -3.130772 0.924356
3.814768 -3.232267 2.149691
0.264118 4.993019 2.615579
4.996335 0.191419 -0.178297
-4.500393 -2.178638 0.091914
4.665686 -1.797602 -3.515201
-1.994051 4.585168 -3.535986
0.705655 -4.949955 -1.326354
4.799838 1.400555 -0.797204
-4.825856 -1.308096 4.343890
4.524830 -2.127420 2.510036
4.566928 2.035478 4.746438
1.059704 4.886413 -2.619908
-1.005207 -4.897914 -2.718461
3.129408 3.899590 -1.577091
4.112593 2.843691 4.651059
4.499098 2.181311 -0.687502
4.999460 -0.073494 -0.959115
4.998198 0.134240 3.611407
-2.863183 4.099047 -0.383064
0.360245 4.987005 4.609304
-3.828702 3.215749 4.238215
4.405120 -2.365357 3.051275
-4.541208 2.092232 4.820966
-4.200555 2.712072 -3.505314
-2.153456 -4.512497 1.225753
-3.035581 -3.973065 -4.857511
-4.527732 -2.121236 3.406412
3.010418 3.992165 -2.707477
-0.093568 4.999124 4.621566
4.982324 0.420055 2.172489
-2.322566 4.427831 1.225239
-3.545035 3.526007 -3.868444
4.781798 1.460962 2.990246
-4.995892 -0.202651 -3.095715
0.151967 -4.997690 -4.692073
0.447964 -4.979892 -1.508837
3.548486 3.522534 4.133690
4.907726 -0.956154 -3.407698
4.941819 0.760543 -3.890219
4.272314 2.597564 2.419526
2.642077 -4.244930 0.755915
-4.288891 2.570100 3.150362
4.678981 -1.762708 1.983248
-2.774502 4.159584 1.550361
4.958157 -0.645510 -0.048355
-4.924455 -0.865877 -2.930636
2.791128 -4.148446 0.156926
4.898173 1.003945 -4.857853
-2.619151 -4.259113 1.214976
-4.868690 -1.138356 0.686486
2.770481 -4.162264 2.639535
-4.811345 1.360499 1.123701
0.623286 -4.960999 -2.660646
-0.628403 -4.960354 1.834943
-1.791671 4.667967 -4.375131
-0.448951 -4.979804 -2.506615
-3.827155 3.217590 0.571918
4.040735 2.944904 -1.262799
4.989412 0.325221 -0.261074
2.095977 4.539480 4.590180
0.335645 -4.988722 0.933054
-2.170180 4.504477 -0.257584
-4.903521 0.977485 4.171449
-4.356007 -2.454629 1.594160
4.889893 1.043524 3.503588
3.142787 3.888816 -0.702930
-3.255734 3.794759 -1.244763
2.763310 4.167028 3.832231
2.779042 4.156552 -3.159286
4.662132 -1.806800 4.423810
-2.790829 -4.148647 -4.445228
4.999501 -0.070648 -1.759325
4.700143 1.705477 -2.388129
4.173367 2.753726 -2.591950
1.503920 4.768461 0.986355
-4.864273 -1.157085 1.343649
4.674930 1.773424 -3.071277
-4.997562 0.156116 0.129413
-4.296587 2.557213 -0.295533
-4.729206 1.623148 3.154204
-4.457167 2.265759 3.167929
2.243598 4.468363 4.691590
-3.692305 3.371481 4.806997
1.211416 -4.851028 2.524524
4.662726 -1.805265 0.673120
4.256146 2.623970 2.391413
4.490967 -2.198002 1.514026
-4.490810 2.198324 4.415370
-0.617420 4.961733 2.266376
-0.036706 -4.999865 -4.038186
-3.907323 -3.119747 2.646444
-3.988500 3.015272 0.515784
-4.299855 -2.551715 3.830133
-3.324389 3.734761 2.231728
-4.564969 -2.039867 -2.368220
4.725130 1.634976 -3.073082
2.889735 4.080371 -0.895250
3.993732 3.008340 2.628661
4.448092 2.283523 -0.520745
1.089325 4.879895 0.242295
1.593184 -4.739385 -2.163227
-4.714051 1.666650 4.084354
-2.090792 -4.541871 -2.018104
4.363362 -2.441531 -4.871947
-1.225364 -4.847523 1.444630
0.626794 -4.960557 2.677254
-3.586375 3.483951 4.535282
-1.479645 4.776050 -3.305169
4.963155 -0.605880 1.371552
3.221677 -3.823715 -1.927780
-4.992256 -0.278171 0.176643
-2.277047 -4.451411 0.120988
4.257600 -2.621611 3.859466
4.982795 0.414434 -2.383379
1.945742 -4.605875 0.171212
4.881842 -1.080565 -0.713402
0.973475 -4.904319 0.010405
-1.674332 4.711328 -2.120322
4.902777 -0.981211 2.111817
-4.975088 -0.498499 1.995118
-1.048518 -4.888825 -1.367454
4.997443 0.159900 1.724039
3.500876 -3.569856 3.615978
3.043829 -3.966750 -4.360722
-4.252933 2.629174 -2.830031
3.770427 -3.283882 3.167229
2.192450 -4.493680 -1.653788
1.823195 4.655745 3.398324
0.268886 4.992765 -4.536497
-4.837807 1.263181 -2.951275
-4.831342 -1.287684 -2.517196
-1.845601 4.646908 2.800996
-0.174545 4.996952 2.390556
4.937586 0.787554 2.938810
2.744572 -4.179393 2.919701
4.364877 2.438822 -2.131195
2.312701 -4.432992 4.439657
-4.985505 0.380447 -4.376409
3.840117 -3.202108 1.077277
-2.241478 -4.469427 -1.315951
3.414746 -3.652329 0.997853
-4.995768 -0.205683 2.720822
-4.668922 1.789181 -4.219474
3.070806 3.945903 -1.010516
-4.778434 1.471928 0.971681
3.132099 3.897430 1.875895
-1.490736 -4.772599 2.325368
1.461491 -4.781636 3.735298
2.924238 -4.055716 2.075219
2.361337 -4.407277 -0.182338
4.254478 -2.626674 -1.754808
-2.581242 -4.282195 0.914537
-4.999672 -0.057275 -2.899866
-1.894738 -4.627090 0.425870
0.135043 4.998176 1.750017
-4.405635 2.364399 2.644019
-4.903115 -0.979523 4.326093
-4.983222 -0.409267 -4.321590
-3.147288 3.885174 -0.413656
-4.867456 1.143624 -2.977349
0.488440 4.976085 -4.479333
-4.850414 -1.213870 -4.316503
-3.835053 -3.208172 0.081368
2.546963 4.302671 -0.224526
2.024631 -4.571747 -4.160039
4.871367 1.126845 0.783372
4.087862 2.879129 0.086711
-4.866876 -1.146088 3.741064
-2.812297 -4.134125 0.519954
3.920268 3.103466 -1.403458
-3.682663 -3.382010 -1.061462
4.890491 -1.040720 2.498460
-4.580247 2.005328 -4.294062
-4.042961 2.941847 0.354860
-2.658813 -4.234467 -4.012678
4.752191 -1.554568 -1.218562
2.942819 -4.042254 -4.513059
-4.937033 0.791017 2.317900
1.947035 -4.605329 -2.227957
-0.934577 4.911880 2.467744
1.919191 4.617002 4.145294
-0.345725 -4.988033 -4.127070
-0.983491 4.902320 1.068798
4.646332 -1.847051 -1.196062
4.917712 0.903386 -2.948868
-2.067912 4.552333 1.910032
2.983453 -4.012357 -4.430496
-0.984183 -4.902182 -2.571903
4.940418 -0.769593 2.395381
-4.962831 0.608529 -3.238313
3.918551 3.105633 -2.194838
-2.882106 -4.085764 0.273840
4.350812 2.463825 1.547385
4.891199 1.037385 -4.078292
4.543698 -2.086819 -2.397168
-0.239230 4.994274 3.530993
-2.392975 -4.390179 3.692447
4.998248 0.132357 -4.834949
-3.572434 -3.498244 2.761315
-3.563257 3.507592 3.829610
-4.999687 -0.055919 1.145502
-4.426859 2.324418 -3.661362
1.186336 4.857222 1.542918
0.376745 -4.985786 2.243753
-2.960365 4.029421 -0.524806
2.344313 -4.416355 0.232136
-4.224367 -2.674832 -3.274283
-4.718213 1.654831 -0.979826
-2.534626 -4.309950 -2.807307
4.835940 -1.270308 -3.542867
-2.480196 -4.341501 2.911413
2.126558 4.525235 -1.567891
2.399992 4.386347 3.173853
-4.375594 2.419541 0.648796
4.586910 1.990040 2.031415
-1.168313 4.861589 -2.250371
4.160285 2.773451 1.644783
-3.152001 3.881351 -1.589182
3.568790 -3.501962 -4.457625
3.577718 -3.492841 -4.386316
-0.292721 -4.991424 -0.990272
0.129982 4.998310 -0.662690
3.774934 3.278700 0.557017
4.555400 2.061148 -2.164123
2.768007 4.163909 -0.089797
-3.903719 -3.124256 -3.843939
-4.411321 2.353773 2.878824
3.968697 3.041290 1.794962
4.992481 0.274101 2.964392
-2.850271 4.108035 2.941136
4.999689 0.055793 0.851806
-4.942936 -0.753251 -4.896761
3.688792 -3.375324 3.509604
4.144894 2.796400 1.776045
-4.605486 -1.946664 4.414415
1.401546 4.799549 -4.902354
2.315205 -4.431684 1.378287
4.993587 0.253166 3.094222
3.548822 3.522196 -2.786023
3.096933 3.925431 -1.815947
-4.625472 1.898686 -4.355623
-4.691023 1.730406 2.641285
4.429872 -2.318671 -3.627019
-3.126042 3.902290 -2.069392
4.858696 -1.180286 3.384725
3.736898 -3.321986 -4.617058
-1.841776 4.648426 2.929059
-4.933988 0.809789 -0.899477
4.989259 -0.327561 -1.653415
1.639658 -4.723507 -3.293375
4.243066 -2.645070 -0.953415
4.664193 1.801472 3.817693
2.788813 -4.150003 -0.234371
-4.357603 -2.451795 -2.003808
-1.783038 4.671271 -1.272870
1.339466 4.817243 -2.795469
0.542277 4.970507 3.126200
4.987779 0.349366 -3.745856
-3.523210 -3.547815 3.333142
-4.740503 1.589851 -4.623467
-3.078603 -3.939823 -1.132948
-3.931820 3.088817 0.338298
3.287725 -3.767077 -4.254310
4.212378 -2.693672 -2.446228
-4.044794 2.939326 2.086411
-0.162231 4.997367 -3.326726
-4.947233 0.724490 -4.741843
-4.596289 1.968280 4.574375
-2.782505 4.154234 -1.681705
3.774739 3.278924 -1.839563
1.822480 -4.656025 3.892274
-0.962595 4.906466 2.168842
4.997836 -0.147097 -1.197031
3.958334 -3.054766 4.319851
0.731810 4.946155 -0.486383
-2.844616 -4.111953 2.759876
0.297755 -4.991126 -2.862853
1.037916 -4.891087 3.062551
-0.435099 4.981033 3.964802
-0.389868 4.984777 -3.948165
-4.125440 -2.825021 -1.712386
-3.325935 3.733384 -2.146974
-2.699488 -4.208654 -4.886750
-2.335999 -4.420759 3.310406
4.935732 0.799091 -0.733448
4.982033 -0.423498 -4.931856
-4.782023 1.460224 -1.071023
-3.981277 -3.024803 3.674299
-4.556890 -2.057853 1.902335
4.750075 1.561020 1.682768
-4.999619 -0.061685 2.890533
-4.431451 2.315652 -2.091983
-4.966102 -0.581235 -2.502942
4.416721 2.343624 -1.100761
4.338799 2.484920 3.784686
-3.670683 -3.395009 1.303416
-2.456981 4.354681 2.977012
-3.884471 -3.148156 -0.130765
4.212397 2.693642 0.249701
-3.705406 -3.357077 4.781689
-3.879037 3.154849 0.443897
-4.993141 0.261799 0.038578
-0.802584 4.935166 -3.572953
-4.650539 1.836433 0.249403
-1.670500 -4.712688 3.805499
2.570531 4.288633 -3.156687
4.258263 -2.620534 3.569009
4.293343 -2.562657 2.079469
-2.963830 -4.026873 -1.768388
1.035734 4.891549 -2.043672
-3.630627 3.437812 -4.893296
-2.590228 -4.276765 2.968630
4.401735 -2.371651 -1.614889
-0.487414 4.976186 -3.380691
-3.084392 3.935292 2.457206
-0.202320 4.995905 3.875182
0.521985 4.972679 -4.868740
3.790135 -3.261116 2.099344
0.403119 4.983723 -2.883095
-4.985472 -0.380883 3.888583
1.137775 4.868826 -3.509076
2.021075 -4.573320 -0.590832
3.967562 3.042770 -2.260865
2.986832 4.009842 4.265351
-0.176917 -4.996869 -2.934130
-4.996639 -0.183292 -1.952344
1.968184 -4.596330 -2.636483
2.897050 4.075181 -2.816071
2.037198 4.566161 -1.328156
-2.893661 4.077588 4.291374
-4.985985 0.374099 2.023792
-4.083711 2.885013 -4.213485
4.998034 -0.140199 -4.424973
0.939138 4.911010 -4.238970
4.012980 2.982615 -0.978647
4.472802 2.234736 -0.238969
-1.713813 -4.697110 -2.435096
4.955940 -0.662314 -3.634253
1.787202 -4.669680 2.010535
0.349185 -4.987792 0.736156
4.644473 -1.851721 2.300166
-0.403484 -4.983693 0.161580
-4.494856 2.190038 3.593130
-4.313168 2.529147 -1.079872
3.039814 -3.969827 3.272089
0.790520 4.937112 -1.292716
-4.899772 0.996109 -1.105421
1.070449 -4.884070 -1.967734
-4.799165 -1.402860 -2.511393
-4.875957 1.106819 -0.778152
3.185101 3.854236 -0.985431
4.351123 2.463275 1.883857
-3.159878 -3.874941 2.192018
2.716987 4.197378 3.136823
4.644705 -1.851140 4.262610
3.799363 3.250360 -3.001628
4.337005 2.488050 3.341692
-0.725388 -4.947101 -1.482778
-0.030091 -4.999909 -1.010515
4.931601 0.824202 4.748503
-4.369018 2.431394 -2.415796
-3.049070 -3.962722 3.682224
-4.836253 1.269116 4.690737
-3.487271 3.583147 4.649705
3.068589 3.947628 -3.248574
3.499624 -3.571083 0.049971
-2.575194 4.285834 0.612272
-2.110873 4.532573 1.493388
-2.461905 -4.351899 2.135032
4.588141 -1.987199 0.551203
3.227867 3.818491 0.667917
-4.570492 2.027463 -1.544563
2.174563 -4.502363 -2.382637
-2.691385 4.213840 -4.429531
-4.162187 -2.770595 -4.209427
1.175197 -4.859929 -0.228381
-3.664093 -3.402120 -4.523567
-0.205027 -4.995795 -2.050714
-1.247248 4.841939 -2.584482
3.837481 -3.205267 2.546904
4.561888 -2.046748 1.893723
-3.122150 -3.905404 3.305329
3.820251 3.225784 1.539354
3.927799 3.093929 3.612661
-4.726199 -1.631884 -0.547866
-4.999767 0.048240 4.353611
-1.203419 4.853018 1.239326
-4.930848 -0.828694 -1.612449
-4.848672 1.220811 4.198128
-2.193009 4.493407 -3.706221
-2.814412 4.132685 3.826209
2.460133 -4.352901 -3.508934
-4.993411 0.256606 -1.767865
3.019389 3.985384 2.042830
4.821906 -1.322581 -1.774575
-4.171733 -2.756201 3.349046
-3.389346 -3.675912 -4.404582
4.999927 0.026983 2.980695
4.934581 0.806172 -4.813229
4.180248 -2.743269 -3.591104
1.347962 -4.814873 4.595181
-4.822133 -1.321754 2.979481
3.579927 3.490576 3.191358
-2.841841 -4.113872 2.722977
-4.547544 2.078424 -1.478733
-3.876348 -3.158152 -3.194859
-4.999920 -0.028364 4.886507
-0.005007 -4.999997 -4.679978
-2.119585 4.528505 0.418750
3.511997 -3.558915 -1.382225
3.746193 3.311501 -2.352510
4.966127 0.581019 -1.513536
3.726891 3.333209 3.132550
3.784221 -3.267977 -0.196936
-4.897322 -1.008088 -0.453087
-4.809235 1.367941 2.853292
-0.472644 4.977611 -1.628270
-3.342701 3.718380 -4.186777
3.414373 -3.652678 4.616747
2.784123 4.153150 -2.784258
-3.265248 -3.786576 -4.496795
4.919917 -0.891302 -1.479331
4.772956 -1.489594 -3.051967
1.494355 4.771468 3.037297
4.914731 0.919465 2.925555
-2.345866 -4.415531 0.255418
-2.053419 -4.558889 -1.991082
2.233306 4.473516 4.117842
4.901818 0.985991 -3.979121
3.232475 -3.814591 -2.292457
3.657762 -3.408926 -0.081537
2.927113 4.053641 3.398034
3.756272 3.300064 -2.949456
-4.471440 -2.237459 -3.222013
-1.817950 -4.657795 -2.811661
-4.962985 0.607275 -2.495428
-0.537230 -4.971055 4.828676
-4.442636 2.294120 -1.587532
-4.150109 2.788655 -2.048328
-4.890107 -1.042523 3.031017
-4.355547 2.455445 3.388716
-1.281019 -4.833114 -2.283776
-4.012161 2.983716 -2.425620
-4.937239 0.789727 -1.072730
0.113595 4.998709 -0.503660
-4.066662 2.908996 4.250614
4.783928 1.453972 0.291368
4.996058 -0.198517 -4.031087
-4.885687 1.063042 -3.290088
0.217848 -4.995252 -1.147175
0.482126 -4.976701 -3.730819
0.364973 4.986662 -3.337404
-4.999989 0.010558 -0.204523
4.911578 0.936164 -4.186948
4.913043 0.928443 -3.532203
0.909008 4.916676 1.598242
2.287726 -4.445932 3.172132
-3.638051 3.429954 3.714885
2.919003 4.059485 -4.560662
-2.929221 -4.052118 0.574267
-4.884777 -1.067218 0.012795
-4.955133 -0.668324 3.377393
-2.996518 4.002609 -0.786137
2.239553 4.470392 -0.079169
-3.185426 -3.853967 1.596039
-4.939129 -0.777818 2.771127
-4.851586 1.209179 -4.083801
1.479853 4.775985 3.345762
-4.812308 1.357090 -4.565041
0.941981 -4.910465 -0.233093
-3.798748 -3.251079 -4.540875
0.281467 4.992071 1.216067
3.342588 3.718482 3.113323
2.911707 -4.064722 2.498477
4.072309 -2.901085 4.956676
-4.123829 -2.827372 -2.887422
-4.287960 2.571652 3.358650
4.478753 -2.222784 -1.758414
-2.817128 4.130834 -0.068199
-1.407381 -4.797841 2.903720
2.958658 -4.030675 -1.794118
-0.669274 4.955005 -2.417441
4.953022 -0.683796 3.913398
4.149015 2.790283 -2.404676
2.465282 -4.349987 1.519865
-0.817487 4.932719 2.184888
3.483123 -3.587179 -3.501110
0.917332 -4.915130 1.546965
-4.996760 -0.179963 -0.589231
4.387559 2.397776 2.675597
1.310073 -4.825319 1.003529
4.345835 2.472593 -3.530331
4.964891 -0.591483 4.071714
-4.924243 -0.867080 4.663697
4.955052 -0.668923 -4.064121
-0.173887 4.996975 4.451016
-4.560468 -2.049911 -2.315216
-0.357584 -4.987197 0.336812
4.384555 2.403265 1.195673
-1.504044 4.768422 4.082890
0.676297 4.954051 -0.002799
-0.627558 4.960461 3.647456
4.966472 -0.578062 -1.519446
-2.120569 -4.528045 1.089482
1.926278 -4.614050 -2.357859
1.134120 -4.869679 -1.734235
-4.117210 2.837002 1.678660
-1.637312 4.724321 4.469082
-1.473735 -4.777877 1.106127
-3.849453 3.190879 -0.439380
-3.679775 3.385153 -1.602362
1.369531 -4.808782 1.117872
-1.660651 4.716168 -4.644349
-4.692866 1.725402 3.281703
-3.911394 3.114643 3.542180
4.834078 -1.277378 3.053867
-4.968401 0.561237 1.732755
4.993466 0.255532 -0.875993
-4.071652 -2.902007 -3.378157
0.201235 4.995949 4.439804
-4.647562 1.843955 -1.910521
4.643641 1.853806 -1.997475
-3.728682 -3.331205 -4.900649
4.259399 -2.618686 -2.908818
4.970209 -0.544999 -1.125925
-1.377231 -4.806582 4.796727
-4.326273 -2.506664 0.751950
4.970457 -0.542728 -1.981575
4.996252 0.193560 1.068014
-4.931871 -0.822588 -2.868241
4.948910 0.712946 2.777022
4.067435 -2.907916 0.234095
4.458115 2.263894 -1.555202
-4.995256 -0.217766 -2.892549
4.222337 -2.678034 1.105389
-4.945308 -0.737512 -3.025167
3.998976 -3.001364 3.848880
1.986278 -4.588540 3.914161
2.694980 -4.211541 4.820816
4.587470 -1.988747 1.975880
2.617144 4.260347 -1.160805
-2.929766 -4.051724 -0.168893
-2.402254 4.385109 -0.317910
1.311669 -4.824886 -1.319977
4.075762 -2.896233 3.232580
2.797263 4.144312 0.657862
3.390202 3.675124 -3.566998
4.699418 1.707474 -0.426260
4.996890 -0.176314 4.474544
3.815248 3.231699 -3.279891
1.492091 4.772176 -1.342188
-4.043572 2.941008 3.049541
4.987616 -0.351684 -4.818675
2.452744 4.357069 -3.443844
-2.011334 4.577613 4.887688
-4.761132 1.526965 3.213944
4.978500 0.463181 -0.377688
3.121017 -3.906310 0.673251
1.559779 4.750483 -4.247856
2.339254 4.419037 4.782213
-1.645226 -4.721571 4.950535
-2.241153 -4.469590 -3.409856
4.671816 1.781611 0.174954
4.473075 -2.234189 1.270816
4.340859 2.481319 -0.021071
-2.848527 -4.109245 -3.458753
-4.758387 1.535497 -0.267548
1.829166 4.653402 -3.535816
-4.613511 -1.927568 -2.111667
-3.987654 -3.016391 1.523039
4.536539 -2.102336 3.775343
-0.547783 4.969903 -4.979696
0.036439 -4.999867 4.392302
0.481958 4.976717 -1.165081
-1.178013 -4.859247 3.639760
1.039922 -4.890661 1.985587
-3.283656 -3.770623 -0.903177
-4.986841 0.362508 -4.485873
-0.852522 4.926785 4.445427
-4.983861 0.401405 2.463419
-3.445888 -3.622962 -1.030159
-4.099716 -2.862224 -2.008057
3.723670 -3.336807 4.385624
2.044585 -4.562858 -4.552491
-0.349398 -4.987777 -4.559414
1.353344 -4.813363 -3.525871
-4.986923 0.361383 0.339994
1.772494 4.675282 3.713370
4.881168 -1.083605 -2.666124
3.737888 3.320872 -0.015206
-4.566012 2.037531 -0.745359
2.586981 -4.278730 -2.887936
2.548189 4.301945 0.029308
1.594554 4.738924 -4.954319
-3.496812 -3.573837 -2.356869
-0.793304 4.936666 -4.537594
-2.927513 -4.053353 3.492172
-4.917844 -0.902668 1.096663
-1.063903 4.885500 3.221199
4.999826 -0.041659 -3.513093
-1.588482 -4.740962 4.567041
4.656240 1.821931 -4.239478
3.891283 -3.139732 -0.495378
-0.742932 4.944497 -2.795519
-3.046736 3.964518 -1.367308
-4.116061 -2.838669 -2.471549
4.622020 1.907073 3.621716
2.355732 4.410275 0.720528
2.172051 -4.503576 2.389712
-4.486773 2.206552 -1.480495
0.620414 4.961359 0.353804
4.862450 1.164724 0.688508
3.640724 -3.427117 -0.113050
4.998460 0.124071 3.917631
4.757925 -1.536930 1.552244
-3.443065 3.625645 -3.365952
-0.967293 -4.905542 0.067041
3.268523 3.783749 4.747982
3.196449 -3.844829 -1.207625
4.225933 -2.672357 -4.998180
1.218822 -4.849172 3.776759
4.608248 1.940115 3.803728
-0.413127 4.982903 1.084130
4.041802 -2.943439 -1.627435
-2.688493 4.215686 -3.530971
2.049907 -4.560469 -2.369894
-4.486040 2.208040 -4.622065
4.432369 -2.313894 -1.177603
-1.055672 4.887285 -3.459502
2.823398 4.126551 -1.399961
-4.359559 2.448316 2.657745
-4.174612 2.751839 -0.836921
4.329837 -2.500503 -2.003844
3.325333 3.733920 2.910904
0.228602 4.994771 -0.508193
-4.998815 0.108842 -0.455513
0.682332 -4.953224 -1.486644
1.607328 -4.734606 2.738724
2.369350 4.402974 3.630384
-4.992387 0.275812 -1.466015
-4.986855 -0.362317 -0.831644
1.546347 4.754872 2.679897
-2.947694 -4.038701 4.320970
4.045491 -2.938367 2.997687
0.637919 -4.959139 -4.171079
4.978663 -0.461423 -2.173916
0.952745 -4.908388 -2.916425
3.244234 3.804596 0.362957
-3.852072 3.187718 -4.582677
0.160448 -4.997425 3.289075
-3.339250 3.721479 2.312389
0.694572 -4.951522 -0.690161
4.972753 0.521275 -1.133245
1.443688 -4.787041 4.341759
-3.216306 3.828234 1.612823
-4.955732 -0.663869 -3.333015
-4.039707 -2.946315 -3.455082
2.279106 -4.450357 2.868512
4.991270 -0.295331 4.214740
-4.526431 -2.124011 1.591664
-4.705897 -1.689537 0.258798
-4.911186 0.938219 -1.877857
3.804250 -3.244639 4.080802
4.149011 -2.790289 -4.802909
-1.903769 -4.623382 1.564714
-3.151004 3.882161 -3.168545
-3.485736 -3.584640 3.997086
2.779307 4.156375 2.796493
1.053988 -4.887649 -4.111415
-0.728877 4.946589 2.677898
-3.211001 -3.832684 -0.964788
-4.646538 1.846532 3.798223
-2.594375 -4.274251 0.970911
-3.872761 3.162550 -0.396811
-4.811688 1.359287 -3.904604
-4.861496 1.168699 4.391475
-3.884000 -3.148737 -4.258067
-3.130586 -3.898645 3.741580
-0.466694 4.978172 3.465384
0.460667 -4.978733 2.151462
-4.723907 -1.638507 -2.343766
4.841389 -1.249381 2.520584
4.163144 -2.769157 -4.240973
0.375659 4.985868 2.433783
0.149224 -4.997773 -4.697759
4.967123 -0.572441 -3.717541
-0.580313 4.966210 4.165360
-1.978123 -4.592062 2.611016
2.082691 4.545591 -3.839769
2.959600 -4.029983 1.867181
2.005450 -4.580193 2.363961
3.307621 3.749619 3.845597
-4.207683 -2.701000 0.093370
3.185373 3.854011 0.873326
4.200354 2.712385 1.088578
-2.663498 -4.231522 -4.632109
-3.492345 3.578201 -3.262604
-4.345503 2.473178 -0.794771
-1.341945 4.816553 3.355201
3.227842 -3.818512 -3.962626
0.549019 -4.969766 -0.389758
-4.211140 -2.695607 2.168902
-1.216395 -4.849782 -2.236561
4.834627 1.275296 -0.422285
-2.855197 4.104613 4.804436
4.450549 -2.278731 -1.244499
2.368636 -4.403358 -2.750762
-1.960002 4.599825 0.144986
4.343512 -2.476673 1.125900
3.015204 -3.988552 -3.421292
-1.845361 4.647004 1.596481
-4.879281 -1.092068 -0.667724
-1.465684 4.780352 -1.256743
-4.960921 0.623908 -1.420663
-2.161029 -4.508875 0.691865
4.955089 0.668653 -1.821367
-2.938977 -4.045048 -0.157316
4.948205 0.717818 1.629423
0.423213 -4.982057 -3.490739
4.151843 2.786072 1.801758
-0.684031 -4.952989 -4.168217
0.807592 -4.934349 -4.058648
-4.991904 -0.284416 3.506395
2.393426 -4.389933 3.255704
4.996051 -0.198676 2.127663
1.217666 4.849463 3.179917
0.817109 -4.932781 -1.291911
-3.893723 3.136705 -2.445131
0.568754 4.967547 -0.797006
-4.911717 0.935435 -1.046654
0.454548 -4.979296 -3.345003
-1.877967 -4.633923 -0.372291
3.717854 3.343286 4.860293
2.087150 4.543545 1.471889
-4.647568 -1.843938 0.971103
-4.877292 1.100920 3.988381
4.955716 -0.663987 -4.784966
-4.981869 -0.425420 -2.237040
2.139344 4.519204 -2.964201
-2.724493 4.192510 1.731742
4.993764 0.249637 2.239477
-3.072733 3.944403 -3.548673
-4.066970 -2.908565 -4.104548
1.357841 -4.812096 4.375006
-4.412249 -2.352032 4.230654
4.651020 1.835215 0.489159
-4.587785 1.988022 -3.888109
2.825411 4.125173 -0.790384
4.904576 -0.972180 1.076971
-1.281845 4.832895 -2.658020
-2.468519 -4.348151 -0.540533
1.385673 4.804155 -3.146349
-4.908203 0.953702 -1.664755
1.241390 -4.843444 -3.390308
-4.643183 -1.854952 3.891229
0.864160 -4.924757 2.058825
-1.574448 -4.745641 2.040349
4.258171 2.620683 0.848966
1.941067 -4.607848 -0.420157
-1.550831 4.753412 1.425984
4.899634 0.996789 -0.818051
2.780430 -4.155624 -0.812989
-3.883022 -3.149942 0.821573
-1.316004 4.823705 -0.594128
4.287742 -2.572017 -0.333376
4.719854 -1.650144 -4.476910
-4.924138 -0.867680 1.766045
3.070152 -3.946412 -4.421223
2.504485 -4.327534 4.123987
2.379584 4.397451 -1.510138
-3.989019 3.014586 1.249110
4.929104 0.839005 3.163928
4.593650 1.974432 0.074595
-3.683195 -3.381431 -1.824388
-2.369515 4.402885 -0.692511
4.272440 2.597355 -2.058844
-2.733042 4.186942 -3.802678
-4.853330 -1.202161 -0.515377
0.253463 -4.993572 0.289164
-3.950068 3.065447 2.282637
-0.093857 -4.999119 0.450713
0.955967 4.907762 -4.248869
-0.873875 -4.923042 0.110512
4.383739 -2.404753 -2.611388
-4.898064 -1.004475 -3.063771
-4.474427 2.231479 -0.807501
