4.936362 0.000000 -1.573140
1.087694 0.000000 0.356168
1.505174 0.000000 -4.830820
-1.289649 0.000000 -3.215659
1.189874 0.000000 2.640596
0.552285 0.000000 0.454090
4.231006 0.000000 -0.281063
-0.234963 0.000000 -2.431430
-0.627704 0.000000 0.251100
4.229287 0.000000 4.088687
-1.683488 0.000000 1.876305
2.298862 0.000000 0.011105
2.862968 0.000000 4.248912
0.906457 0.000000 -1.234569
0.621715 0.000000 -0.218628
-2.940304 0.000000 4.111663
-4.173259 0.000000 -3.489216
-3.896856 0.000000 -3.344338
0.839972 0.000000 4.348144
4.814310 0.000000 2.006947
4.987290 0.000000 -4.262673
3.959953 0.000000 2.285296
-4.483519 0.000000 3.520767
0.702410 0.000000 -3.038464
0.784130 0.000000 -4.340686
-4.159727 0.000000 3.119822
-2.641206 0.000000 4.313553
-0.941249 0.000000 2.784262
-2.212000 0.000000 1.012538
3.723701 0.000000 -1.799648
1.904614 0.000000 0.773702
-4.991142 0.000000 -1.121477
-4.998205 0.000000 2.476538
1.991029 0.000000 -0.670766
4.757649 0.000000 4.512859
3.578220 0.000000 4.503693
-4.635821 0.000000 1.113852
-2.585639 0.000000 4.626871
-0.946109 0.000000 1.338582
1.687583 0.000000 -2.416693
-4.287977 0.000000 0.747051
1.189317 0.000000 -2.443972
-4.668312 0.000000 2.122631
-0.727292 0.000000 3.884654
-2.268989 0.000000 -2.523289
-3.992225 0.000000 -0.091238
2.789126 0.000000 -0.308706
2.755217 0.000000 2.061920
3.864730 0.000000 -3.857434
0.216537 0.000000 -3.747888
1.340267 0.000000 -1.872652
-3.211042 0.000000 3.774552
-2.025003 0.000000 3.529898
2.809185 0.000000 3.579937
-0.830579 0.000000 -1.799796
4.367798 0.000000 -3.772372
-4.245932 0.000000 -3.364659
-4.928757 0.000000 0.361755
2.324495 0.000000 1.390341
-4.258160 0.000000 0.596292
0.640410 0.000000 4.329038
2.091029 0.000000 4.035593
-3.405376 0.000000 -1.688281
3.362323 0.000000 1.996131
4.548760 0.000000 -3.338177
-2.143778 0.000000 0.555112
-3.533012 0.000000 -1.684870
-3.987690 0.000000 1.406082
2.950195 0.000000 4.481244
4.997965 0.000000 1.767659
-4.523212 0.000000 -2.351650
-0.899770 0.000000 1.554372
-2.234622 0.000000 2.963649
-2.533963 0.000000 -3.020838
3.144916 0.000000 0.646751
-0.570643 0.000000 3.286978
-4.037625 0.000000 3.801600
0.901139 0.000000 4.305064
4.227569 0.000000 -4.821684
0.100296 0.000000 -2.585609
-2.726875 0.000000 1.658520
3.773025 0.000000 1.248295
-4.608994 0.000000 -4.245172
-2.106511 0.000000 -2.525444
1.464139 0.000000 -0.252880
0.827151 0.000000 -4.490717
2.476005 0.000000 3.778805
-0.716779 0.000000 -0.461725
0.967513 0.000000 0.026218
2.307810 0.000000 -2.721487
-3.168141 0.000000 1.131749
2.333551 0.000000 4.469199
3.920214 0.000000 -4.120329
2.243400 0.000000 0.486854
0.536725 0.000000 4.072223
-3.844583 0.000000 -3.392803
-0.167916 0.000000 0.435863
-4.725798 0.000000 0.908556
2.202285 0.000000 3.122340
-0.045510 0.000000 0.071861
3.021780 0.000000 -2.852634
2.740793 0.000000 3.145518
3.363867 0.000000 2.938669
-3.122118 0.000000 2.432572
3.590987 0.000000 0.022613
4.669317 0.000000 -0.000495
2.508328 0.000000 -2.534424
-4.373491 0.000000 0.706412
-0.665892 0.000000 2.123702
-4.104918 0.000000 -3.471564
-2.597814 0.000000 0.461644
0.122448 0.000000 1.647959
-2.196479 0.000000 -0.917060
0.075667 0.000000 -3.633174
0.237198 0.000000 -1.374545
-2.140099 0.000000 -2.241828
3.370435 0.000000 4.882822
-0.954122 0.000000 1.875165
-3.006706 0.000000 -4.100068
2.861983 0.000000 -4.487348
-2.543296 0.000000 0.555513
-1.523175 0.000000 3.945007
1.435396 0.000000 -4.278119
0.063802 0.000000 -0.267229
-2.944414 0.000000 -2.439185
-3.517549 0.000000 -0.275264
1.120762 0.000000 3.211549
0.329039 0.000000 3.773380
-2.387824 0.000000 -1.638272
2.805306 0.000000 3.034178
3.235151 0.000000 -0.192632
4.440245 0.000000 1.805174
3.072068 0.000000 -2.051236
-3.448685 0.000000 0.790491
2.160074 0.000000 3.148240
-4.433067 0.000000 1.109446
3.836788 0.000000 2.310931
-1.829303 0.000000 -2.255181
-2.750186 0.000000 -1.642301
-3.770128 0.000000 4.744552
-3.406597 0.000000 -0.584571
1.661377 0.000000 0.813795
2.148954 0.000000 3.335306
3.733561 0.000000 -3.239093
3.659257 0.000000 -1.210778
-0.699245 0.000000 1.068320
-0.630731 0.000000 1.537960
-0.767961 0.000000 -0.052584
1.385427 0.000000 3.332083
-2.690481 0.000000 2.253777
-1.544492 0.000000 -0.659066
3.038610 0.000000 -3.279404
-4.636294 0.000000 0.080491
1.358659 0.000000 2.518133
-3.553054 0.000000 -1.108219
-3.596576 0.000000 2.875794
-2.092239 0.000000 1.216884
0.197350 0.000000 4.414481
-3.918157 0.000000 2.887133
-3.906099 0.000000 3.022935
3.618481 0.000000 -3.933447
-4.482504 0.000000 -4.640714
-2.823035 0.000000 -0.301299
-1.123252 0.000000 1.878018
2.409173 0.000000 2.553141
1.438369 0.000000 -2.068855
-3.027865 0.000000 -4.812980
-2.040248 0.000000 -0.107923
-3.518069 0.000000 1.539434
2.000782 0.000000 3.596209
1.960864 0.000000 -3.913254
2.407619 0.000000 3.871767
4.854224 0.000000 -2.569139
0.726229 0.000000 2.826185
-0.151345 0.000000 -2.778312
-2.351283 0.000000 3.143536
4.388623 0.000000 -0.389619
0.837091 0.000000 0.344496
4.272749 0.000000 0.910475
-4.304790 0.000000 -3.522816
-4.227275 0.000000 2.672110
1.435970 0.000000 3.990380
3.853570 0.000000 -0.080399
-2.568665 0.000000 2.494535
-3.234561 0.000000 0.583325
1.764754 0.000000 0.785213
-0.627546 0.000000 -0.749285
2.757177 0.000000 -1.628082
-2.307037 0.000000 1.941527
-2.305040 0.000000 -3.791452
2.817988 0.000000 -1.112610
-0.620698 0.000000 -2.722262
3.404281 0.000000 -0.646461
1.040451 0.000000 4.991719
-1.316590 0.000000 4.453294
0.420742 0.000000 1.704694
-0.418303 0.000000 -1.964671
2.074900 0.000000 -0.489290
-3.824621 0.000000 -3.553768
-2.824990 0.000000 -0.074702
2.952204 0.000000 -2.489969
2.560430 0.000000 -1.894759
2.611211 0.000000 -0.324036
-0.070856 0.000000 -3.692074
0.202740 0.000000 -1.722286
1.792108 0.000000 2.849858
1.525075 0.000000 -0.997258
4.136941 0.000000 4.489809
3.289363 0.000000 -1.892155
-0.114392 0.000000 2.832322
3.423560 0.000000 4.725152
-3.965716 0.000000 -4.234731
-4.025463 0.000000 4.320305
3.167775 0.000000 3.925239
1.246097 0.000000 1.034722
1.894616 0.000000 -4.224526
-0.287353 0.000000 4.138988
-3.292127 0.000000 0.753861
-2.822153 0.000000 4.472206
-0.862900 0.000000 3.750555
4.177933 0.000000 3.521520
-0.367630 0.000000 -1.588350
1.037206 0.000000 0.220827
-2.623713 0.000000 2.014820
-1.288418 0.000000 -1.303657
0.760656 0.000000 -3.995155
-2.822433 0.000000 2.034342
2.530176 0.000000 4.356863
1.771546 0.000000 -3.968768
-0.874969 0.000000 0.687285
-1.492659 0.000000 2.001892
0.570901 0.000000 1.562662
-0.188365 0.000000 -2.305045
2.927048 0.000000 0.260221
1.648433 0.000000 -1.107607
-3.396557 0.000000 -0.587674
-2.951610 0.000000 -4.080661
2.523003 0.000000 2.168965
-2.686251 0.000000 4.463225
4.062696 0.000000 -4.157269
-1.364965 0.000000 -4.689080
2.471029 0.000000 -4.778984
-4.138978 0.000000 2.174795
-0.559039 0.000000 3.085732
-1.032155 0.000000 0.455347
-1.291545 0.000000 3.177060
0.044485 0.000000 -4.525290
-4.908607 0.000000 -3.269114
-2.228991 0.000000 -1.811843
1.794743 0.000000 -4.681459
-2.678169 0.000000 -4.674293
3.350522 0.000000 -2.273127
0.103618 0.000000 2.411399
-4.190301 0.000000 4.149397
2.287589 0.000000 -3.522425
3.227155 0.000000 -0.358524
-2.400328 0.000000 -3.738810
3.399203 0.000000 -2.219747
4.552786 0.000000 0.916452
2.109199 0.000000 0.173575
1.521076 0.000000 0.501225
0.465938 0.000000 1.917593
-1.486774 0.000000 1.945503
0.059860 0.000000 1.623641
-2.258586 0.000000 1.020012
0.285506 0.000000 2.779364
3.346034 0.000000 -1.128552
-1.699790 0.000000 -1.097643
-3.206591 0.000000 -2.122872
1.363603 0.000000 2.557780
3.501037 0.000000 2.021178
-1.118288 0.000000 3.079299
4.685738 0.000000 0.780001
-3.747510 0.000000 1.219489
4.593642 0.000000 1.446548
-3.890839 0.000000 -3.669421
-3.790244 0.000000 2.954054
-2.150352 0.000000 -2.177947
-1.238331 0.000000 3.644337
-3.650725 0.000000 -4.029412
4.494596 0.000000 2.147144
1.400251 0.000000 1.688620
-4.088426 0.000000 -0.306966
-4.741203 0.000000 0.642656
-0.115709 0.000000 -3.497006
0.452415 0.000000 -0.601068
1.517737 0.000000 0.590690
1.650195 0.000000 3.393746
1.038384 0.000000 2.251325
-3.287732 0.000000 1.689380
4.970767 0.000000 -0.805999
0.432911 0.000000 4.141784
0.319666 0.000000 4.953108
1.454811 0.000000 0.350775
4.803268 0.000000 3.305439
-0.892263 0.000000 -0.240515
-4.099535 0.000000 0.988746
0.156098 0.000000 -0.926438
1.664101 0.000000 -2.731257
-0.082474 0.000000 1.541495
4.950489 0.000000 1.588611
-3.955321 0.000000 4.233743
1.271489 0.000000 -1.190384
1.850588 0.000000 2.456039
1.099712 0.000000 -0.376282
-0.212073 0.000000 2.513364
-1.570281 0.000000 4.476613
3.107789 0.000000 2.407575
-2.275499 0.000000 -2.691916
4.049435 0.000000 -1.799191
-3.304774 0.000000 0.167016
0.839106 0.000000 1.320161
-0.473876 0.000000 -1.938194
-4.848559 0.000000 0.080103
-2.477645 0.000000 2.777624
-2.062367 0.000000 0.671729
0.233087 0.000000 1.941917
-0.881760 0.000000 -4.711068
-1.762435 0.000000 3.200280
-0.200190 0.000000 -4.438946
-4.260881 0.000000 -2.118312
4.703044 0.000000 4.952045
0.784150 0.000000 -1.686113
-4.584808 0.000000 -3.035202
2.282146 0.000000 0.010899
-4.250631 0.000000 0.983751
-0.435936 0.000000 -4.482464
1.397481 0.000000 -4.631958
-4.594032 0.000000 -1.299042
3.858382 0.000000 0.716260
4.952022 0.000000 0.477226
0.212831 0.000000 -2.417825
-3.750495 0.000000 -0.110783
0.814820 0.000000 -4.152884
3.683257 0.000000 -0.035314
4.006343 0.000000 -1.972985
1.823301 0.000000 4.604543
0.287108 0.000000 1.112972
-2.867619 0.000000 -1.745000
-0.369477 0.000000 2.545772
2.824589 0.000000 2.873504
3.582961 0.000000 1.024019
-0.663632 0.000000 -3.355088
-0.350173 0.000000 4.464142
2.909884 0.000000 -3.262007
-4.755511 0.000000 -1.544439
2.410120 0.000000 -2.770505
-4.232054 0.000000 4.196975
-0.419171 0.000000 3.502091
-4.357162 0.000000 -4.668725
-1.533475 0.000000 -0.497708
-4.096428 0.000000 3.406939
2.124028 0.000000 0.216015
3.938875 0.000000 4.660737
3.517789 0.000000 4.452015
-1.312139 0.000000 4.512485
3.991323 0.000000 2.309143
-2.852817 0.000000 -3.195829
-2.678591 0.000000 -1.665589
-2.149187 0.000000 -4.550430
4.474414 0.000000 -0.664034
-3.558703 0.000000 4.550419
1.600073 0.000000 2.482100
2.433261 0.000000 -3.184268
-1.004644 0.000000 0.411376
4.313883 0.000000 0.136872
-1.402321 0.000000 -4.163017
4.480057 0.000000 -1.773990
3.231070 0.000000 -4.500312
-4.951281 0.000000 1.500272
0.276999 0.000000 2.513452
-3.903888 0.000000 -3.323860
-4.277732 0.000000 -2.529770
-2.915970 0.000000 0.905028
-1.972309 0.000000 -3.412031
-4.952596 0.000000 -0.325371
3.664138 0.000000 -3.971531
0.319772 0.000000 1.907887
-2.869455 0.000000 2.278639
1.899261 0.000000 0.770297
-1.170319 0.000000 -3.473716
0.442898 0.000000 -2.133415
-3.222021 0.000000 3.027708
-2.484348 0.000000 0.807788
-2.725410 0.000000 -2.626181
-3.603915 0.000000 1.801842
-2.580414 0.000000 0.925271
-3.602967 0.000000 -1.344310
2.015817 0.000000 3.362219
-1.521097 0.000000 -3.551377
3.109398 0.000000 -1.916488
0.453458 0.000000 -1.249636
-1.416082 0.000000 3.085193
4.814427 0.000000 1.671975
4.073133 0.000000 0.603318
2.480277 0.000000 3.936199
-1.945983 0.000000 0.492991
-2.742162 0.000000 -4.287393
3.629669 0.000000 -0.423825
1.823016 0.000000 3.520235
1.633644 0.000000 -1.376425
1.343913 0.000000 2.391248
-1.175185 0.000000 1.868817
0.891726 0.000000 -1.765594
-4.021810 0.000000 0.146014
-4.996048 0.000000 1.544519
-2.289150 0.000000 0.150786
4.722711 0.000000 1.368419
1.932528 0.000000 2.236377
4.619533 0.000000 -4.877775
1.617283 0.000000 3.552458
-3.482652 0.000000 2.104927
-2.185155 0.000000 -0.118067
-3.462872 0.000000 4.558838
2.834341 0.000000 -0.362815
-0.027893 0.000000 2.214215
-0.380932 0.000000 -3.088890
2.140835 0.000000 2.686615
-2.416242 0.000000 3.171282
0.412783 0.000000 -0.848974
-4.962719 0.000000 -4.427634
-2.981751 0.000000 -2.855752
1.551413 0.000000 -3.626853
-2.316487 0.000000 -2.697703
-1.383607 0.000000 -3.697691
-2.604562 0.000000 -3.278751
-2.078752 0.000000 4.554975
0.469974 0.000000 3.787298
-4.425082 0.000000 -4.556091
0.891371 0.000000 4.514378
-0.636831 0.000000 -2.290230
-3.680145 0.000000 4.151833
1.086931 0.000000 -1.686867
-0.690654 0.000000 1.457269
1.757240 0.000000 -1.919731
-4.373211 0.000000 -3.707390
1.282777 0.000000 -2.069453
-3.243456 0.000000 1.648613
4.379390 0.000000 3.003858
3.460847 0.000000 0.258953
4.809423 0.000000 -4.479914
-4.659299 0.000000 0.804172
-2.729243 0.000000 4.269192
-0.516435 0.000000 -2.066407
1.455495 0.000000 -2.598837
-1.527468 0.000000 -3.412462
-1.081184 0.000000 4.106214
-3.322606 0.000000 -1.741901
-0.657919 0.000000 -1.037424
-0.429632 0.000000 0.221860
-2.593114 0.000000 -0.437931
0.881451 0.000000 -3.846590
-3.734839 0.000000 -4.299742
4.932476 0.000000 -2.789199
0.917738 0.000000 -3.788279
4.575274 0.000000 3.781041
-1.597118 0.000000 -3.767862
-3.182882 0.000000 -1.242905
1.230952 0.000000 0.457642
-4.502469 0.000000 -2.772400
-0.954537 0.000000 0.403778
3.105624 0.000000 1.121432
0.787884 0.000000 1.287990
-1.786790 0.000000 0.344835
3.114567 0.000000 -2.211145
-0.576491 0.000000 -4.990644
-1.739993 0.000000 -4.526724
3.508174 0.000000 1.644299
0.327359 0.000000 -0.470204
-2.401497 0.000000 -1.338619
-2.161970 0.000000 -1.727299
1.074821 0.000000 4.962407
-1.333503 0.000000 4.060578
-0.011702 0.000000 3.485504
-1.870634 0.000000 -2.622281
2.946364 0.000000 -4.671892
-3.965898 0.000000 -2.351955
3.723272 0.000000 2.145366
4.781692 0.000000 0.598984
1.235273 0.000000 -4.465758
4.555633 0.000000 4.045226
-1.358010 0.000000 -1.115809
0.775562 0.000000 -0.685569
-4.430305 0.000000 -2.179795
-0.123097 0.000000 1.536282
-2.984830 0.000000 -2.983808
-0.012493 0.000000 0.735448
-0.041839 0.000000 -0.819832
4.347247 0.000000 1.872566
1.568284 0.000000 2.371204
-2.831448 0.000000 3.070896
-1.395068 0.000000 -4.447337
3.294851 0.000000 3.233039
0.037764 0.000000 -2.235551
-0.032627 0.000000 2.343393
-3.341290 0.000000 -4.295224
-4.125923 0.000000 -0.530125
1.631578 0.000000 2.236149
-3.949943 0.000000 3.900359
-1.368092 0.000000 0.316517
3.795150 0.000000 3.410059
-0.076344 0.000000 -3.633292
-2.829388 0.000000 -2.825047
-1.775937 0.000000 2.840538
-2.841513 0.000000 1.770686
-4.327360 0.000000 -3.256251
-0.102860 0.000000 -2.424713
-1.159882 0.000000 -2.303721
-1.517318 0.000000 2.362631
3.062714 0.000000 2.361490
1.646152 0.000000 -1.224862
-1.036710 0.000000 0.227316
-0.543061 0.000000 2.475181
-2.119762 0.000000 -1.989674
-2.129612 0.000000 -2.211235
-1.052227 0.000000 -1.587840
-1.099224 0.000000 -2.544436
4.770594 0.000000 0.967696
-3.134586 0.000000 1.505813
1.579800 0.000000 -0.923954
-1.696008 0.000000 4.248353
2.161057 0.000000 2.565843
-1.164887 0.000000 4.242337
-3.654412 0.000000 -0.324994
0.135108 0.000000 3.372464
-2.804730 0.000000 -4.438230
0.777649 0.000000 -1.705105
4.653229 0.000000 -3.583146
-4.239072 0.000000 -0.375688
-1.061210 0.000000 3.979993
-4.934554 0.000000 -0.946198
-4.992463 0.000000 2.237594
1.276297 0.000000 -1.290266
-4.612438 0.000000 1.916795
-3.218839 0.000000 -4.704598
0.086822 0.000000 -3.198548
2.199280 0.000000 2.743908
-4.077685 0.000000 4.461556
-3.924760 0.000000 -4.914469
2.644776 0.000000 -0.080449
1.366319 0.000000 -3.040515
3.060756 0.000000 -4.171201
3.800786 0.000000 1.883991
0.511327 0.000000 4.300742
4.235705 0.000000 2.983732
-2.152373 0.000000 4.122897
4.824643 0.000000 -4.970568
0.193891 0.000000 -0.789878
-1.485996 0.000000 0.564445
2.055150 0.000000 -0.506302
2.859763 0.000000 2.700242
-3.040579 0.000000 3.992537
4.737594 0.000000 3.917308
-4.092928 0.000000 0.046487
-3.546862 0.000000 3.654895
-2.559251 0.000000 0.638683
4.103391 0.000000 4.674449
2.532535 0.000000 -3.791546
-4.513860 0.000000 -3.959495
-1.391460 0.000000 -0.361495
-1.190349 0.000000 -4.033446
-0.114299 0.000000 2.906215
4.620814 0.000000 -3.202908
-4.373254 0.000000 0.647616
-3.802032 0.000000 3.506480
-4.855515 0.000000 2.956442
-4.469915 0.000000 0.637289
-3.748936 0.000000 0.769375
3.517692 0.000000 -3.441765
2.794706 0.000000 2.473737
1.407410 0.000000 -3.708147
4.214840 0.000000 0.966470
2.583857 0.000000 -2.376815
-4.085685 0.000000 4.538712
1.357814 0.000000 -4.707814
-2.116442 0.000000 1.954389
-4.103122 0.000000 -0.108138
-1.548969 0.000000 0.746946
-2.014808 0.000000 1.867249
1.174596 0.000000 -4.735903
0.822541 0.000000 -3.537286
4.064738 0.000000 4.045996
4.967505 0.000000 -4.067755
2.813681 0.000000 2.415717
-4.623090 0.000000 -3.663221
3.192450 0.000000 2.242689
-4.949755 0.000000 1.520764
4.545689 0.000000 -1.418287
-3.276318 0.000000 -0.116607
-4.888694 0.000000 3.569891
-0.417553 0.000000 1.031507
0.832234 0.000000 -4.033482
-3.457066 0.000000 1.078232
2.334968 0.000000 -1.152791
4.046106 0.000000 -0.814224
1.642011 0.000000 1.045438
0.187984 0.000000 -1.705666
-1.353618 0.000000 -2.753255
-2.007005 0.000000 -3.478312
4.514782 0.000000 0.863145
-0.785901 0.000000 -0.103041
1.092669 0.000000 -4.853516
0.369360 0.000000 2.772648
-1.016614 0.000000 -0.082904
-2.359560 0.000000 4.223810
-0.814649 0.000000 -0.516936
-4.858706 0.000000 0.281315
0.392429 0.000000 0.282060
2.619004 0.000000 0.795955
-3.498573 0.000000 4.322016
3.886444 0.000000 -1.115925
-1.480203 0.000000 -2.487302
4.633759 0.000000 3.923944
-3.662864 0.000000 -3.367067
-1.645443 0.000000 -4.395528
-4.951202 0.000000 0.808201
0.924322 0.000000 0.914260
2.367716 0.000000 4.216758
4.583173 0.000000 -1.338018
-0.635790 0.000000 2.826557
0.019760 0.000000 4.200965
0.677387 0.000000 -3.406302
0.667628 0.000000 0.890264
-3.616157 0.000000 0.035863
-0.116885 0.000000 -2.969143
-4.695660 0.000000 -2.972441
0.346680 0.000000 -3.117083
-0.551111 0.000000 2.741703
-4.891430 0.000000 2.755343
1.010919 0.000000 3.891484
-0.894205 0.000000 4.192976
4.015122 0.000000 -2.087717
3.151408 0.000000 4.491273
0.060306 0.000000 1.156361
0.622630 0.000000 -2.214541
-0.493346 0.000000 1.072921
-4.416378 0.000000 3.870418
-3.778688 0.000000 1.938311
-1.194912 0.000000 -3.713120
-1.468260 0.000000 3.117335
-0.800583 0.000000 -1.433064
-1.071482 0.000000 -1.165889
-1.801544 0.000000 -3.007032
-2.875331 0.000000 -0.646906
-0.873384 0.000000 -4.807006
-2.880614 0.000000 -2.565188
-1.737354 0.000000 -4.590000
2.858322 0.000000 1.598364
-1.008388 0.000000 0.335767
-2.219563 0.000000 -4.781455
-3.981334 0.000000 4.706323
-1.943515 0.000000 -4.752734
4.464682 0.000000 -1.664836
0.856785 0.000000 -0.410584
-1.312912 0.000000 -3.882887
-3.136948 0.000000 -3.866969
0.614573 0.000000 3.744621
2.700193 0.000000 -3.360417
-2.230286 0.000000 -3.332168
-4.216948 0.000000 2.285679
1.797399 0.000000 -4.027006
-1.753393 0.000000 1.253337
-4.283131 0.000000 -0.542467
4.504635 0.000000 2.847237
-4.692161 0.000000 4.871077
-0.353889 0.000000 -0.089565
-4.712778 0.000000 0.271697
2.172947 0.000000 1.942065
-4.901398 0.000000 2.168720
1.660805 0.000000 0.229782
-2.831609 0.000000 0.430836
-1.488202 0.000000 4.900024
-2.876922 0.000000 3.694240
-2.150208 0.000000 -4.198263
-0.057807 0.000000 -0.323033
2.951015 0.000000 -4.240286
2.016639 0.000000 -0.192705
1.794325 0.000000 3.689073
1.510487 0.000000 4.013368
3.061220 0.000000 0.358166
-3.235867 0.000000 -3.297839
4.813778 0.000000 2.976982
-2.219906 0.000000 4.135302
2.858871 0.000000 -3.485816
4.094571 0.000000 1.148507
3.130772 0.000000 -0.783085
-4.867854 0.000000 -0.630038
0.869760 0.000000 4.393471
1.720041 0.000000 1.265798
-1.433890 0.000000 1.752993
-3.538728 0.000000 -0.258188
2.318456 0.000000 0.037460
-2.514682 0.000000 -1.509110
-3.486414 0.000000 1.067854
-4.440213 0.000000 -4.573652
0.411106 0.000000 -4.972747
-4.549778 0.000000 2.213356
4.456865 0.000000 1.854966
4.169081 0.000000 3.491483
-4.455222 0.000000 -2.071934
-2.840929 0.000000 -1.622804
-1.659894 0.000000 -0.659420
-4.452906 0.000000 4.360208
1.822920 0.000000 -3.526427
0.592801 0.000000 -3.030647
-3.788873 0.000000 -0.733558
4.861951 0.000000 -1.982735
-0.481839 0.000000 0.155553
3.523738 0.000000 2.996853
-3.661387 0.000000 2.654546
-2.034390 0.000000 1.144041
-0.299689 0.000000 1.172870
-1.175985 0.000000 -2.095674
0.521023 0.000000 4.383360
3.685325 0.000000 0.409183
3.761775 0.000000 -2.888230
1.412461 0.000000 3.209992
2.760792 0.000000 4.870122
-0.607519 0.000000 -2.992235
-1.023917 0.000000 -3.598604
2.089644 0.000000 -3.292037
0.698698 0.000000 -3.307050
2.606094 0.000000 -1.771739
0.742964 0.000000 -2.806633
-2.053672 0.000000 -2.085543
0.878771 0.000000 4.761517
-0.814376 0.000000 1.129659
-2.829821 0.000000 1.122230
1.549435 0.000000 0.109119
-3.776972 0.000000 0.062979
2.769724 0.000000 1.261581
-4.544787 0.000000 -0.691969
-3.842130 0.000000 4.654062
2.248490 0.000000 3.267191
-0.669052 0.000000 4.022276
-2.925325 0.000000 -4.189648
3.909666 0.000000 -1.482614
-1.966387 0.000000 0.797994
-4.796959 0.000000 -0.082638
3.492553 0.000000 4.496402
4.632112 0.000000 0.878157
-3.052876 0.000000 -2.474091
1.999599 0.000000 -3.618428
2.956742 0.000000 -1.059509
-1.152792 0.000000 -4.601123
3.120047 0.000000 -2.569319
0.432396 0.000000 1.928032
1.369197 0.000000 3.053892
4.989387 0.000000 -0.199791
0.427267 0.000000 -0.625888
-3.492361 0.000000 3.066558
-4.147934 0.000000 -1.312465
0.359292 0.000000 -1.342364
-4.920329 0.000000 4.236752
-1.935658 0.000000 4.336252
-0.032684 0.000000 -1.633616
-1.185778 0.000000 -2.613633
3.172619 0.000000 2.485329
-2.518435 0.000000 -1.882432
4.397688 0.000000 1.268131
-0.587738 0.000000 -0.450859
-0.644187 0.000000 3.413590
3.677439 0.000000 -1.769973
-0.890739 0.000000 -0.399341
3.761229 0.000000 1.492272
4.048199 0.000000 -4.524764
-1.592184 0.000000 -3.963723
-3.338486 0.000000 -4.433265
4.927547 0.000000 3.697799
-3.392793 0.000000 3.689983
4.607977 0.000000 0.730262
2.836139 0.000000 -4.195538
1.122504 0.000000 4.763723
2.595267 0.000000 4.418661
4.098603 0.000000 -1.362357
1.639737 0.000000 1.505221
3.252102 0.000000 -3.956708
-0.858352 0.000000 1.852659
1.661511 0.000000 -1.286670
-3.043140 0.000000 1.338771
0.185490 0.000000 -4.479531
2.108961 0.000000 3.283538
1.208678 0.000000 3.649391
2.853573 0.000000 -2.505053
-1.528229 0.000000 -0.648344
-3.614947 0.000000 -4.974472
-1.869614 0.000000 -0.695449
1.076380 0.000000 -3.389515
4.927141 0.000000 -2.778024
-0.953563 0.000000 1.645999
-0.981421 0.000000 -3.699736
1.234249 0.000000 -2.861328
-4.725085 0.000000 -4.539691
0.228675 0.000000 -2.592468
0.987161 0.000000 1.590872
-3.577108 0.000000 2.782530
-2.554206 0.000000 -3.146213
0.532428 0.000000 -4.154734
-1.675158 0.000000 4.169394
-0.430226 0.000000 2.866709
3.056501 0.000000 -2.980120
-2.345952 0.000000 -3.773473
-3.882909 0.000000 -3.047621
-0.745729 0.000000 2.474977
1.287377 0.000000 1.484549
2.549862 0.000000 0.875393
-1.981883 0.000000 1.589082
-1.419409 0.000000 -1.454546
4.989073 0.000000 3.396435
-3.514192 0.000000 -4.551002
2.137595 0.000000 -2.036960
1.439972 0.000000 4.152893
-1.817881 0.000000 2.664221
-4.634448 0.000000 1.541556
0.695670 0.000000 -1.603344
-2.276526 0.000000 -4.076299
1.128603 0.000000 4.536525
-3.729859 0.000000 3.228883
1.520295 0.000000 -2.718648
3.283284 0.000000 -2.968119
-2.226170 0.000000 0.034632
-2.199273 0.000000 -2.284397
-4.119580 0.000000 3.757052
-4.547974 0.000000 4.245207
3.828166 0.000000 -0.834317
2.987505 0.000000 0.918493
-1.834059 0.000000 4.212509
1.513405 0.000000 -2.779834
-1.832180 0.000000 1.611897
-4.733443 0.000000 -4.319620
-0.005167 0.000000 2.144709
3.422025 0.000000 1.991900
-3.552503 0.000000 0.650439
-4.689100 0.000000 -0.984155
3.837511 0.000000 -1.882449
1.320156 0.000000 -0.048709
-3.912239 0.000000 3.952606
0.029025 0.000000 -0.452518
-3.948230 0.000000 3.521476
3.224257 0.000000 -1.476850
0.729493 0.000000 4.012911
-3.857336 0.000000 2.434019
4.629068 0.000000 3.810387
2.388982 0.000000 -4.949083
-0.397590 0.000000 4.590277
-2.751740 0.000000 -1.289523
0.617180 0.000000 -4.214228
-1.476196 0.000000 -1.454619
-4.272707 0.000000 -0.854378
0.462858 0.000000 1.292363
4.745274 0.000000 0.305763
-3.124062 0.000000 1.162422
0.302212 0.000000 4.640797
-0.824198 0.000000 -1.731250
3.327270 0.000000 3.408981
-4.839329 0.000000 2.939115
-3.619324 0.000000 0.262787
0.474972 0.000000 -1.282774
-2.934993 0.000000 0.544761
-0.808119 0.000000 -2.271382
-4.872795 0.000000 -2.807531
-2.902404 0.000000 4.211117
-1.731596 0.000000 3.990302
-3.833433 0.000000 -1.564503
2.082418 0.000000 2.310734
-0.065322 0.000000 -1.018202
-4.683147 0.000000 3.457903
0.866095 0.000000 -3.469760
-1.114957 0.000000 -2.968459
2.997465 0.000000 -2.323109
1.427915 0.000000 -4.923082
2.771532 0.000000 -1.847929
1.897502 0.000000 4.305357
1.429317 0.000000 1.698100
-3.347656 0.000000 -1.032666
1.805579 0.000000 -1.557497
-1.179457 0.000000 -1.609600
-4.505980 0.000000 -1.282622
-3.529863 0.000000 -3.465119
1.545178 0.000000 3.643514
3.046231 0.000000 2.011129
2.908293 0.000000 3.713974
2.757068 0.000000 -2.482892
0.577019 0.000000 4.319009
4.795306 0.000000 0.362555
-2.419960 0.000000 -0.061297
-3.450647 0.000000 -3.423784
4.244802 0.000000 4.229356
3.037579 0.000000 -4.308160
-0.760544 0.000000 -1.257285
2.669761 0.000000 3.952435
-2.148063 0.000000 2.666156
-1.506162 0.000000 -0.206469
-2.177042 0.000000 -2.873595
-3.013403 0.000000 0.523890
-2.806898 0.000000 -2.790498
1.624629 0.000000 -4.410996
2.281841 0.000000 -3.686414
-3.317974 0.000000 0.534633
-4.574955 0.000000 -1.005269
2.072679 0.000000 -2.400073
-4.988491 0.000000 0.056750
-3.715426 0.000000 0.120900
0.090536 0.000000 -0.411889
4.516639 0.000000 0.867896
-2.864509 0.000000 -3.659796
-3.965727 0.000000 -3.087409
3.155657 0.000000 -3.746332
-4.605216 0.000000 -2.571733
-0.164697 0.000000 3.021057
-1.421898 0.000000 2.215642
3.935884 0.000000 0.675786
3.691692 0.000000 4.258027
-1.941330 0.000000 4.868237
-2.899705 0.000000 1.925770
4.976434 0.000000 -3.412361
-0.015716 0.000000 -3.329356
-2.048800 0.000000 0.705642
-4.846175 0.000000 -4.912087
3.577915 0.000000 -3.282428
-1.016052 0.000000 4.218836
2.238326 0.000000 1.383847
-3.242575 0.000000 -1.013790
3.660945 0.000000 -0.965756
1.094826 0.000000 -3.763652
-0.925417 0.000000 -0.182515
2.089150 0.000000 0.947814
2.973383 0.000000 -2.968726
-0.013397 0.000000 1.886854
3.835989 0.000000 4.180593
4.031018 0.000000 -2.506537
3.904300 0.000000 -1.396329
-1.136753 0.000000 0.336582
4.795213 0.000000 -4.227470
1.601456 0.000000 -2.662702
3.367637 0.000000 3.592622
0.530247 0.000000 -4.584345
1.021449 0.000000 4.859588
-2.889222 0.000000 0.178888
-3.459982 0.000000 -3.468252
1.578616 0.000000 3.914713
-3.451399 0.000000 -1.260237
0.529386 0.000000 3.569094
3.887783 -3.144065 -4.940580
4.757724 1.537551 4.330915
-2.319759 4.429302 -3.654218
-4.480194 2.219878 -2.643165
1.725080 4.692984 3.184336
-2.144156 -4.516923 -1.952104
-3.230262 -3.816465 -1.784688
-3.910536 -3.115719 3.632988
-1.784820 -4.670591 -3.962724
1.499082 4.769985 4.559060
4.950442 0.702226 -3.935155
4.862849 -1.163055 1.264731
-4.267197 -2.605960 -2.095193
3.418520 3.648798 3.639700
3.725051 -3.335265 3.896334
-4.800942 -1.396766 -2.635064
0.666858 -4.955331 -0.026833
4.469655 -2.241023 -3.391160
-4.595893 1.969205 -0.326749
3.845352 3.195820 1.024453
-4.942338 -0.757160 0.555646
4.106597 2.852343 1.415174
1.075167 4.883033 -3.991894
4.928141 0.844645 -2.760341
4.098548 -2.863896 -1.905586
-4.772547 -1.490904 3.386930
0.127097 4.998384 -3.310726
2.896282 -4.075727 0.795548
2.112584 4.531776 -0.142546
1.044636 -4.889656 0.084769
3.750067 3.307114 -2.197546
-4.984345 -0.395360 3.305946
-4.112413 2.843952 3.950967
0.563120 -4.968188 -0.275680
-4.855666 1.192689 -2.241361
0.419109 -4.982404 -0.103231
-1.976853 -4.592608 0.075009
-1.871670 -4.636470 4.659685
-4.927362 0.849178 2.380602
3.264001 -3.787650 2.958683
4.980520 -0.440936 -1.775113
-4.959260 0.636978 -2.408183
-4.301138 2.549551 1.682242
4.811082 -1.361430 -2.352249
-4.103364 -2.856991 -0.663326
1.196104 4.854826 -3.171711
-4.904893 0.970582 3.063042
3.456339 3.612993 -3.944003
-3.606843 -3.462757 2.681755
0.676774 4.953986 1.672517
4.571812 -2.024485 3.008674
-3.865539 -3.171374 -1.183731
-2.612187 4.263388 -3.048768
4.070804 -2.903197 -0.565917
-4.987117 -0.358697 -2.747980
1.091934 -4.879311 -2.764839
3.182078 -3.856732 -4.030686
-4.995363 -0.215292 0.726402
-1.394886 -4.801489 -0.411161
-4.799430 1.401952 0.417615
3.102836 -3.920767 0.296999
-4.595985 1.968990 -1.945308
4.910635 0.941099 -1.650168
2.849242 4.108749 -2.964650
3.516678 -3.554290 -4.591975
1.384092 4.804611 -1.412951
4.990665 -0.305387 4.588210
-4.820358 -1.328213 -0.214263
3.136845 3.893610 0.988286
-1.349379 -4.814476 -2.816494
-3.486409 -3.583986 -2.776274
-3.753604 3.303098 0.280491
4.113379 2.842554 1.619376
3.769539 -3.284901 3.908185
-0.632551 4.959827 3.479779
0.161580 4.997388 1.716153
3.608070 -3.461478 -4.357894
4.999223 -0.088141 -3.925052
-4.797267 1.409337 -1.489692
-3.693870 -3.369766 -3.631596
3.456307 -3.613024 -1.593416
4.175294 -2.750804 -3.856049
-4.057473 2.921799 -3.049501
0.240182 -4.994228 -4.215572
-4.571731 -2.024666 -0.422622
3.433359 -3.634838 4.751726
-4.480002 -2.220267 -3.217909
0.269571 4.992728 0.845700
-4.390445 -2.392487 3.093486
0.525246 -4.972335 -2.487515
3.588405 -3.481860 0.587591
-2.765786 4.165384 1.949214
-4.124254 -2.826752 1.407765
0.087365 -4.999237 -4.806792
-3.882179 -3.150981 3.980949
4.996071 0.198188 -3.540958
-4.771926 -1.492890 -1.354020
2.608111 -4.265883 1.291457
4.396809 -2.380771 -4.038038
2.232579 -4.473879 -2.348166
-3.501723 3.569025 1.755821
-3.814426 3.232670 4.701348
3.549536 3.521476 0.816552
2.556932 4.296754 -0.159926
2.922235 -4.057160 -1.244119
1.024574 4.893899 -1.835879
-3.248236 -3.801179 -1.224992
-3.375907 3.688259 4.179389
-3.753598 3.303105 4.942048
4.887345 -1.055394 -3.899715
4.780716 -1.464499 -2.101950
-0.197597 4.996094 -3.975778
3.337156 -3.723357 1.233667
-1.844085 4.647510 0.477596
-3.819287 3.226925 3.714510
4.905563 0.967189 -1.208874
3.884919 3.147604 -1.866511
1.010114 -4.896904 -4.887408
0.488437 -4.976086 -2.641709
-4.996218 -0.194441 -0.891096
2.443328 4.362356 -3.543920
0.310087 4.990375 -0.275868
1.167745 -4.861725 4.309794
1.626253 4.728139 1.602261
2.926578 -4.054028 -1.395866
-3.699164 3.363954 0.275206
-4.877307 -1.100850 0.282562
-4.483743 2.212703 1.011616
3.744050 -3.313924 -2.655618
-4.992226 0.278713 3.372158
2.254582 -4.462831 3.350499
-0.345821 -4.988026 0.076751
-4.297953 -2.554916 4.402730
-4.989149 -0.329223 1.590374
-3.492535 -3.578017 -0.434715
4.839596 -1.256310 4.746562
3.684108 -3.380436 -1.866394
-4.966805 -0.575197 -3.690040
-0.459891 4.978805 1.046790
-0.193190 4.996266 -4.714360
-4.805382 -1.381413 -2.975388
-4.999800 -0.044712 4.865227
4.635709 -1.873554 3.972472
-4.960570 -0.626693 3.692808
-4.994103 -0.242767 -1.773463
-1.441929 4.787571 -3.571643
-4.697806 -1.711906 1.777451
-4.592772 -1.976472 -2.237771
-4.794033 1.420297 4.624665
-4.638880 1.865688 2.803911
3.691367 -3.372507 -2.975992
4.919453 -0.893857 1.390290
3.140204 3.890902 1.588934
-1.252732 -4.840523 4.436137
-4.594093 -1.973400 -1.792715
-4.614602 1.924955 -0.025698
2.466796 -4.349129 4.569584
4.447438 2.284797 2.781372
0.055144 -4.999696 1.143479
4.792624 1.425045 2.832619
-4.987768 -0.349535 3.431308
1.520541 -4.763188 3.107651
-4.991747 0.287160 3.068213
4.932734 -0.817395 3.112352
-0.251137 -4.993689 -0.358947
4.999279 0.084899 -3.067758
3.861412 -3.176397 2.279850
0.378717 4.985637 0.345724
-4.724869 -1.635731 -2.248392
-4.988305 0.341784 0.224177
4.989146 -0.329281 -4.860351
3.269090 -3.783259 -1.304973
4.419617 -2.338159 0.617434
2.662106 -4.232398 2.312429
4.507440 2.164019 3.319894
4.017682 -2.976277 -0.593664
-4.996885 0.176453 0.035148
4.330585 -2.499207 -4.989647
-4.882251 -1.078716 0.097129
-1.654168 -4.718445 4.700164
3.123548 3.904286 -1.366133
4.891559 1.035687 1.625039
1.495398 -4.771141 4.985527
-4.478326 2.223645 2.000286
4.999989 -0.010631 -3.843671
-1.756339 -4.681375 0.351364
4.030211 -2.959290 0.710371
0.060927 -4.999629 -1.701472
4.478868 -2.222554 1.620965
2.475259 4.344317 -4.317877
-2.961315 4.028723 -1.180727
-4.402960 -2.369376 3.767947
-0.724952 -4.947165 -0.060658
4.799070 -1.403184 -4.233212
3.887445 3.144482 -4.898020
-3.818512 3.227843 -2.486608
0.098763 4.999024 -3.272006
0.134588 -4.998188 -3.928371
4.711052 -1.675108 0.356953
4.974375 -0.505563 -0.834660
-4.965849 -0.583390 -2.231216
4.805095 -1.382411 1.933533
4.986843 -0.362493 2.492786
4.344369 2.475169 4.409329
4.662481 -1.805899 -0.938859
1.881847 4.632348 -3.993519
-0.230393 4.994689 1.665856
4.360295 2.447004 4.706076
4.996989 0.173496 1.328376
4.884831 -1.066971 0.740987
-3.467015 -3.602749 0.999500
1.799735 -4.664864 1.867829
0.691168 -4.951998 4.998250
-4.922439 -0.877267 2.117033
4.683755 -1.749982 1.888536
-4.865168 1.153315 -4.155629
3.443015 3.625693 4.149338
3.700716 3.362246 -0.783484
2.397737 -4.387580 1.410872
-1.758962 4.680390 0.399722
3.798179 3.251743 -3.999109
4.939100 -0.778003 0.618870
2.336234 -4.420634 -3.653247
-3.866545 3.170147 1.811777
1.130307 -4.870565 -3.548317
-0.910760 -4.916352 -2.440950
-1.194061 -4.855329 1.985522
4.382957 -2.406178 -1.052721
3.907187 3.119919 -0.833794
-1.833215 -4.651808 2.910372
4.346479 2.471460 0.957893
3.326847 -3.732571 -3.698575
-0.684149 4.952973 3.343448
-4.945699 0.734886 4.491179
-4.950985 -0.698386 -4.760136
-4.869544 -1.134700 -3.831250
-0.587305 -4.965387 2.084069
4.218125 2.684664 3.862613
1.169398 4.861328 -1.573547
-2.226160 4.477076 2.616717
-4.880646 -1.085953 0.781926
2.969739 4.022518 0.645812
4.961502 0.619274 4.365143
4.590743 1.981181 -4.166337
4.998778 0.110530 -4.609433
-3.892318 -3.138449 4.725616
1.939659 4.608440 3.023791
-1.815188 -4.658872 -3.563162
4.060963 2.916947 0.616092
-3.312986 -3.744879 -3.950984
4.291049 -2.566495 -1.923999
4.980157 0.445018 -3.511413
3.800946 -3.248509 -2.303710
-1.232873 4.845619 3.752082
0.596537 4.964287 0.748038
3.815691 3.231176 -1.295666
-0.421556 -4.982197 -0.147538
4.947962 0.719497 2.552417
-4.999718 -0.053094 2.019686
-4.822944 -1.318792 -2.581219
4.735161 -1.605694 -3.945071
-4.211552 2.694963 -1.394409
-4.697764 1.712019 -2.416313
-4.257612 -2.621591 -1.244462
-4.998036 -0.140142 0.536714
3.980988 3.025183 3.105355
0.819996 4.932302 -1.958943
-0.268322 4.992795 -1.212925
-4.581139 2.003289 -0.005495
0.460930 4.978709 -0.820295
3.402914 -3.663356 -1.858106
2.038584 -4.565542 1.131715
3.875481 -3.159217 -0.163487
-4.999735 -0.051493 -3.774151
-1.980939 4.590848 4.417326
4.894541 -1.021504 4.373519
1.565134 -4.748722 -1.383437
-3.181233 3.857429 -2.507866
3.471185 -3.598733 -0.664236
-4.942999 0.752834 -3.680417
-4.964352 -0.595995 -2.607805
-4.529875 -2.116656 0.891478
-2.425020 -4.372560 -1.393866
4.911192 0.938185 4.589739
-3.324878 -3.734325 2.303418
4.999718 -0.053057 -4.222883
2.688194 -4.215876 3.479428
2.342166 -4.417494 -1.558700
-4.681074 1.757141 3.519625
-3.561879 3.508991 -4.856224
-4.778037 1.473215 -1.780801
4.096144 -2.867333 1.210644
-1.807011 -4.662050 -1.558154
4.875415 -1.109203 -2.463540
3.908006 3.118893 -0.184740
4.566518 2.036397 2.940032
-2.355202 4.410558 -0.873974
-0.381665 4.985412 -3.377801
2.758712 4.170073 1.109970
0.330288 -4.989079 0.422795
-0.756556 -4.942431 2.798022
-3.419331 -3.648037 4.931831
4.999993 0.008295 1.856730
0.102895 4.998941 2.558447
-1.103406 -4.876730 -0.727675
-2.752553 4.174141 4.920743
4.601151 1.956887 3.460637
1.474829 4.777539 2.532196
-3.189463 3.850626 -1.666967
-4.650845 1.835657 3.981788
-4.775750 1.480611 -2.558665
4.974747 -0.501885 -4.442707
4.695654 -1.717798 1.135935
-3.267597 -3.784549 -4.798910
-0.670906 4.954784 1.526424
-4.373652 2.423050 3.344430
4.305665 -2.541899 -4.422987
-0.987388 4.901537 -2.001480
-4.252743 2.629482 -1.625218
-1.741040 4.687087 2.861921
-2.161363 4.508715 3.927888
4.815987 1.343976 0.362700
4.144434 2.797082 4.509736
4.788790 -1.437878 0.675668
2.391904 -4.390762 -4.739203
-4.723992 -1.638262 -1.567223
-4.048888 2.933685 -4.936013
3.620753 3.448209 -0.862853
4.999805 -0.044140 -2.710868
-3.171228 -3.865658 3.770071
-2.601168 -4.270120 4.059432
-1.368254 -4.809145 -4.808046
1.087563 4.880287 -3.494145
2.193588 -4.493125 0.299697
3.170175 3.866521 2.463024
-4.970344 -0.543767 -1.235387
-3.950841 -3.064450 2.843363
4.915654 0.914519 3.002888
-3.726117 -3.334074 -0.299067
4.961886 -0.616186 -2.964020
1.584875 -4.742170 3.594359
2.103167 -4.536154 0.999896
4.112734 2.843487 4.422098
-4.986107 -0.372473 3.858537
-2.014766 4.576103 0.006603
2.534290 -4.310148 -3.566467
-1.410955 4.796791 3.721806
-4.112621 2.843650 2.397841
-4.482921 -2.214367 -4.598853
-4.046090 -2.937542 -3.010319
3.311158 3.746496 -1.231436
-4.614761 1.924573 0.624587
-4.316484 2.523482 -4.902884
0.361110 4.986943 0.194439
1.955474 -4.601752 2.540617
3.508029 -3.562827 1.399823
-3.585427 -3.484926 1.023106
-3.082557 -3.936730 4.697674
-1.361137 -4.811165 2.681549
4.797792 1.407548 -4.704098
-2.699800 -4.208453 -0.054731
0.514598 4.973448 -2.873296
-4.796290 -1.412658 -0.576266
4.997207 -0.167114 -3.855005
4.075320 2.896855 2.804275
4.110158 2.847210 1.271023
2.771285 -4.161728 -3.087509
-4.654936 -1.825259 -4.957283
2.964284 -4.026540 3.315029
-4.865603 1.151480 -2.564909
-2.207980 -4.486070 3.766530
4.217832 2.685124 -3.942323
-4.751707 1.556047 0.158607
-0.528040 -4.972039 0.179834
2.745289 -4.178922 -1.919886
-3.229963 -3.816718 1.928142
2.090744 -4.541893 -2.474153
-3.454220 -3.615019 -1.887459
0.440629 4.980547 -0.655665
-4.241156 2.648131 2.621013
-3.645150 3.422409 2.268175
4.094679 -2.869426 3.833916
1.029007 4.892969 1.312871
-3.483777 -3.586544 2.120169
-3.768428 3.286176 -4.092576
-1.580054 -4.743778 1.881071
4.282480 2.580769 -2.521290
-4.951156 0.697179 -2.500853
-4.999999 -0.002420 -3.552151
4.069110 -2.905571 1.624506
-0.501153 -4.974821 -4.120046
-3.034318 -3.974030 4.058095
4.595922 -1.969137 -4.174219
1.138679 -4.868615 -0.500058
2.274642 -4.452640 0.218730
0.578696 4.966398 1.923245
-1.707396 4.699447 1.868496
-0.137491 4.998109 4.975723
0.021901 4.999952 4.751553
4.895144 -1.018608 3.978740
4.707634 -1.684691 2.179587
-0.723118 -4.947434 -0.865993
-3.674936 -3.390405 -0.009844
4.872065 1.123823 -0.906912
-1.072094 4.883709 -4.359548
0.335700 4.988718 -4.813570
-4.612561 1.929839 -0.869910
0.491641 -4.975770 1.219642
2.542878 4.305087 -4.607986
-0.265186 -4.992963 1.465083
-3.891011 -3.140069 3.983830
-0.568699 -4.967553 2.601682
-4.265706 -2.608400 -3.620922
-2.564888 4.292010 -3.612242
2.742895 -4.180494 -3.427615
4.759170 -1.533070 -2.679476
-4.509350 -2.160038 -2.892335
-0.124043 4.998461 3.124915
4.776845 -1.477077 -0.847492
2.378681 4.397940 -0.080919
-1.181010 4.858520 0.325953
2.086201 4.543981 -3.923129
-4.833107 1.281043 -2.055360
-3.459113 3.610338 -4.132318
4.997371 0.162117 2.979569
4.497468 2.184670 3.249564
0.792821 -4.936743 -2.107388
4.079110 2.891516 -1.392225
2.060862 -4.555529 -4.840071
-2.151851 -4.513262 -2.226102
-2.309815 4.434496 4.773208
3.689597 -3.374444 -3.322382
1.390181 -4.802853 -3.853460
-2.273813 -4.453063 3.807222
-4.248526 2.636290 4.449171
4.773385 -1.488218 -1.036238
-1.489732 -4.772913 2.299470
-2.049716 -4.560555 3.998947
-4.995702 0.207276 -3.272251
3.909149 3.117460 -1.726710
3.118223 -3.908540 3.843513
4.768513 -1.503758 1.489852
3.715556 -3.345840 -4.014679
-0.391272 4.984667 1.265201
-4.889211 -1.046719 -1.239649
-2.975409 -4.018326 -1.077071
1.937254 -4.609452 3.979908
3.573083 3.497581 1.265109
4.913611 -0.925435 -2.199882
1.405142 -4.798497 3.984209
4.399046 -2.376635 -0.698225
0.054364 4.999704 -4.699188
4.996408 -0.189493 2.914279
3.842325 -3.199459 -1.402484
-3.242680 -3.805920 3.959711
2.498227 4.331150 -4.478279
1.745754 4.685333 3.748745
2.599201 -4.271318 -2.971865
-4.585962 1.992222 1.625708
-0.462449 -4.978568 3.974970
-3.260427 -3.790728 1.764376
-3.682520 -3.382166 3.835536
3.422408 3.645151 -3.582361
-3.673078 3.392417 -2.708510
0.856134 -4.926158 1.384975
1.869059 -4.637523 1.550901
-4.233011 -2.661132 4.562735
4.914340 0.921556 -3.204870
-0.874531 -4.922925 -0.212074
4.787522 1.442093 -2.059985
-3.676675 -3.388519 -0.223901
-4.860181 -1.174156 1.140489
-4.918816 -0.897356 2.417728
-1.476690 -4.776964 1.154803
-3.399941 3.666115 0.147431
0.239518 4.994260 -0.722456
0.076955 -4.999408 -0.781889
1.095805 -4.878443 -4.617396
-3.019440 -3.985346 -3.173825
3.961689 -3.050413 -0.637492
2.507896 4.325559 -2.109647
-0.072888 4.999469 4.626214
-2.850284 4.108027 0.373105
4.221850 -2.678803 0.685815
-4.745336 1.575369 -2.323694
0.123146 4.998483 -2.919831
3.600262 3.469598 4.092359
2.923120 4.056522 -2.298628
0.577482 4.966540 -1.959473
-3.306398 3.750697 2.629322
3.405125 3.661301 4.182616
4.004409 2.994113 3.070063
1.444537 4.786785 -4.561171
-0.160979 4.997408 0.050298
-0.090847 -4.999175 0.308126
3.858192 -3.180307 -2.022372
-2.368280 -4.403550 0.294867
2.754133 -4.173099 -4.494022
-1.239051 -4.844043 3.493940
0.362715 -4.986826 4.750459
3.037605 -3.971518 1.773329
2.685193 4.217788 4.000113
-3.213328 -3.830734 -0.994630
-4.095540 -2.868197 1.621882
-3.598884 3.471028 0.348903
-2.917875 -4.060296 4.960056
1.603407 4.735936 0.471672
-4.293365 2.562619 -3.263534
-3.882789 3.150230 -2.992703
4.997637 -0.153692 4.523587
3.993035 3.009265 3.968111
1.534254 4.758788 -1.242929
-0.062121 4.999614 -1.015747
-4.860235 1.173930 2.136815
-3.517555 -3.553422 0.982547
2.417481 4.376732 1.978572
4.830371 1.291322 2.259357
4.960094 -0.630451 4.904967
0.762230 -4.941559 4.821937
-4.875343 -1.109520 -2.441950
1.157495 4.864176 3.366511
-4.977627 -0.472474 0.309037
-4.576471 -2.013931 4.792012
4.989911 0.317465 4.740011
4.820151 -1.328965 -1.484217
-1.325993 4.820969 4.257013
4.952771 0.685608 -2.551923
-3.506277 3.564551 0.544389
-4.958254 -0.644760 -1.034324
-4.435961 2.306999 -4.859173
3.077396 -3.940766 2.462940
-4.080791 2.889143 4.152963
2.501789 4.329094 -4.291504
4.802378 1.391823 -0.938831
2.962228 -4.028052 -2.304331
-4.976425 0.484968 3.797195
0.323603 -4.989517 -1.459638
-4.808486 -1.370571 -2.278707
-1.354897 4.812926 0.217782
3.393705 3.671889 3.608500
2.359459 -4.408282 -2.988268
1.735713 4.689062 0.331177
1.318692 4.822971 -3.583740
-4.425084 2.327796 -0.967092
-2.582875 -4.281210 0.374909
4.976961 0.479438 -4.862010
2.533056 -4.310873 -0.063639
3.524316 3.546716 -1.842585
4.853697 -1.200676 -0.794618
4.831098 1.288601 2.947121
0.182026 4.996686 -3.824600
4.629879 -1.887914 2.930427
0.224378 -4.994963 3.163213
-2.988524 -4.008581 -4.928626
-3.206164 -3.836732 -4.606447
-0.288037 -4.991697 4.931856
4.451785 -2.276316 1.621659
4.551833 2.069013 2.853360
-0.353401 -4.987495 4.046717
0.533844 -4.971419 -0.751011
4.778875 1.470493 -0.543656
2.936800 -4.046629 0.934097
4.391136 2.391218 0.211712
0.497292 -4.975209 -0.941261
3.293359 3.762152 -3.893210
3.232972 -3.814170 0.292214
0.513810 4.973530 -3.831788
3.739961 3.318538 3.884364
-4.896508 -1.012031 0.053235
-2.596626 4.272884 -0.133785
3.562720 3.508137 0.077124
-4.941057 -0.765477 -4.056432
-0.180618 4.996737 4.983729
-4.872102 -1.123665 -3.315388
0.086373 -4.999254 -3.330452
-4.901508 -0.987530 3.651858
2.085470 -4.544317 -0.887292
2.958943 -4.030466 0.389463
-4.566759 2.035856 -2.200259
-4.990661 0.305461 1.516648
4.868199 -1.140456 4.359005
3.234192 3.813135 4.775056
0.302729 -4.990827 4.746030
4.363452 -2.441369 3.963955
-1.524361 4.761966 4.950199
4.454064 -2.271852 4.851059
-1.812054 -4.660092 -4.564250
-4.999585 0.064398 -1.477525
1.825998 4.654646 -2.370159
-4.138980 2.805146 2.836021
4.677756 1.765955 0.145358
3.153976 3.879747 1.547953
1.697616 4.702988 -3.612993
3.088241 3.932273 4.300366
1.729886 -4.691214 -2.063027
-0.258854 -4.993295 -2.203403
-2.591472 -4.276011 3.507201
4.639165 1.864979 -0.589618
4.630036 1.887530 -0.607540
-4.963993 -0.598976 1.405165
2.946202 -4.039789 -2.697855
-1.246131 -4.842226 -3.964363
-4.669760 1.786992 -1.131602
2.293912 -4.442743 -0.249483
0.724215 -4.947273 1.891733
-0.722265 -4.947558 -0.997701
3.724076 3.336354 3.408877
2.106506 4.534604 -1.798758
-2.744794 -4.179247 3.527244
-4.999988 -0.010751 -1.048311
-3.227911 -3.818454 -0.592843
4.456120 -2.267818 0.236081
3.409181 -3.657525 -2.488078
-4.841218 -1.250043 -3.751874
2.640553 4.245878 -4.685962
0.619419 4.961484 -4.290457
-4.999690 0.055701 3.527331
1.650954 4.719571 -2.239340
-4.848257 1.222458 -4.894825
3.766030 -3.288923 -4.136860
4.745717 -1.574221 -4.218923
-3.608880 3.460634 -2.990865
-2.944060 4.041350 -2.916532
-0.041801 -4.999825 -0.864353
-0.896116 4.919042 -4.353561
1.899072 -4.625313 3.734432
-4.721867 1.644376 -0.349415
1.755455 -4.681707 -1.848608
1.991513 4.586270 -1.559514
3.845312 -3.195868 3.084549
-4.865315 -1.152695 3.106706
-0.999924 -4.898995 -1.334992
2.715743 -4.198183 2.162588
1.519959 -4.763373 2.898924
4.157025 2.778334 -1.120031
1.727776 4.691992 3.063283
-4.987600 0.351920 3.297314
4.689264 -1.735166 3.461590
-3.725900 -3.334316 3.903514
-3.543858 -3.527190 -3.707663
0.112470 -4.998735 1.941265
-0.285101 4.991865 4.150285
3.942507 3.075165 3.377313
3.692843 3.370892 2.776140
4.978689 -0.461143 -1.536317
1.701390 4.701624 4.367519
-4.866911 1.145941 -3.573368
-2.771803 4.161383 -4.999510
4.952328 -0.688802 0.321415
-1.121081 -4.872697 0.148541
-4.186517 -2.733693 -2.137526
4.942641 0.755182 -1.721286
-4.972745 -0.521353 -1.216527
-3.403197 3.663093 2.528331
-1.654137 4.718456 1.926109
2.081155 4.546294 -2.312620
-1.736168 -4.688893 4.751733
0.983557 -4.902307 2.820112
-2.435425 4.366773 -0.223902
-1.950352 4.603925 -4.691686
-0.448032 -4.979886 -2.220174
3.595631 -3.474397 2.497198
0.678019 4.953816 -1.079345
-0.608113 4.962882 1.591591
-2.537133 -4.308475 -0.529534
-4.512770 -2.152884 -3.662141
3.674070 3.391344 1.068177
4.976259 -0.486667 1.967727
4.852064 1.207260 4.519091
-4.191752 -2.725658 -2.076439
-4.484993 2.210167 0.349410
-4.768072 -1.505155 4.595864
-3.406283 3.660223 2.162118
4.998767 -0.111028 -1.615303
4.551978 2.068695 2.246781
-3.987828 3.016162 0.911450
2.656647 -4.235826 2.845070
-4.517978 -2.141932 4.674532
-0.550299 -4.969625 -0.501600
-4.498227 -2.183106 -2.755828
4.445972 2.287648 4.172845
-4.286507 2.574074 -2.431430
0.475951 -4.977295 3.951252
-4.845955 -1.231551 4.178133
-0.790298 4.937148 -3.165320
-2.220421 4.479925 1.239647
-2.804099 4.139690 1.298098
2.521257 4.317784 4.418385
-0.962158 -4.906552 1.636824
-0.914728 -4.915615 -1.035503
-4.764326 -1.516971 3.460167
-2.228409 -4.475957 0.632611
2.499187 4.330596 -0.980991
3.887048 3.144974 -2.496615
4.963062 0.606641 -0.065528
4.780635 1.464762 -0.848079
-4.827992 1.300191 0.117526
-0.617632 -4.961706 -0.538987
-4.626281 1.896713 2.615232
0.810011 -4.933952 4.879920
2.527488 -4.314140 3.466255
-4.560979 -2.048774 -4.348974
3.177760 3.860290 -4.370013
0.296310 -4.991212 -4.364311
-3.797189 3.252900 -3.727637
-0.614771 4.962062 -0.919470
-3.673872 -3.391558 4.662803
-2.519969 -4.318536 3.913927
4.684867 1.747004 3.522287
-1.035444 4.891611 -0.870275
1.175955 -4.859746 -4.459284
-0.819900 -4.932318 3.316959
-4.648688 -1.841114 -3.577198
4.032075 2.956750 0.962845
2.399056 -4.386859 -0.602203
-0.880020 4.921947 3.058431
3.695908 -3.367531 -1.078534
-1.529046 -4.760464 0.553821
-4.722867 -1.641502 -0.095292
-4.978449 0.463729 0.285625
4.965334 -0.587757 4.209415
-4.319851 -2.517714 1.785668
3.748940 -3.308391 -4.299753
4.701624 -1.701390 3.701754
0.381458 4.985428 0.004195
-0.388874 -4.984855 2.191986
-4.895766 -1.015616 -4.366214
2.678016 -4.222349 4.868014
4.247615 -2.637757 -1.300303
0.348544 4.987837 -1.536530
0.054209 -4.999706 3.479993
-0.184369 -4.996600 2.991569
-2.557686 4.296306 -3.119561
4.982395 -0.419219 4.386871
2.903824 4.070357 1.930458
-0.686683 -4.952622 0.635579
1.258073 -4.839137 0.137401
2.747684 -4.177348 -4.403756
-1.735562 4.689118 -2.728551
-0.355558 4.987342 2.911486
-4.200876 -2.711575 1.497712
4.993419 0.256452 -0.487082
-4.999867 0.036446 -2.453008
3.205443 3.837335 -0.612312
-2.992371 4.005710 -2.536684
-1.614999 4.731995 1.883765
3.661327 -3.405097 2.085296
-2.379980 -4.397237 4.111107
-3.226886 -3.819320 -0.384938
-3.806931 3.241493 0.842336
-3.076019 3.941841 -4.275286
-3.598401 3.471529 1.345131
-1.502745 -4.768832 -2.416946
-1.276124 4.834409 3.846127
3.685586 3.378824 1.710403
-0.613943 -4.962164 2.936935
-4.326420 -2.506410 -1.260755
